ply
format ascii 1.0
element vertex 1257
property float x
property float y
property float z
property uchar red
property uchar green
property uchar blue
end_header
-9.231715 -6.193283 7.005553 255 255 0
-10.620269 -6.281636 6.522375 255 255 0
-9.022670 -5.983490 7.012602 255 255 0
-10.635069 -6.073690 6.447388 255 255 0
-8.962994 -5.867510 6.995862 255 255 0
-9.997301 -7.802331 7.260815 255 255 0
-10.612766 -7.547196 6.948259 255 255 0
-10.808547 -7.462482 6.847645 255 255 0
-9.456204 -6.926443 7.167778 255 255 0
-9.406519 -6.802837 7.144798 255 255 0
-9.394906 -6.761159 7.135152 255 255 0
-11.842594 -7.060210 6.331337 255 255 0
-9.363460 -6.722456 7.133824 255 255 0
-9.375586 -6.722763 7.129450 255 255 0
-9.354160 -6.692452 7.127227 255 255 0
-11.479156 -6.461800 6.265470 255 255 0
-9.011615 -5.961559 7.009352 255 255 0
-10.573359 -5.910508 6.415617 255 255 0
-10.566608 -5.877263 6.406996 255 255 0
-9.549149 -5.703024 6.724435 255 255 0
-10.776915 -6.337818 6.483318 255 255 0
-9.900145 -6.602415 6.895523 255 255 0
-9.057817 -6.069205 7.028281 255 255 0
-9.879008 -7.786929 7.299345 255 255 0
-10.016012 -7.775359 7.244889 255 255 0
-10.079082 -7.755493 7.214958 255 255 0
-10.052124 -7.763877 7.227716 255 255 0
-10.956440 -7.378116 6.764831 255 255 0
-11.147959 -7.326012 6.676693 255 255 0
-9.678950 -6.945462 7.091888 255 255 0
-11.142225 -7.175140 6.628369 255 255 0
-10.086271 -6.394972 6.757442 255 255 0
-10.953143 -6.540991 6.486173 255 255 0
-10.184062 -5.915263 6.560954 255 255 0
-10.208345 -5.913406 6.551366 255 255 0
-10.223550 -5.562716 6.428507 255 255 0
-10.461721 -7.551135 7.005347 255 255 0
-10.804462 -7.483605 6.856215 255 255 0
-11.689404 -7.134944 6.412888 255 255 0
-9.716234 -5.584203 6.623014 255 255 0
-9.912971 -7.781793 7.285087 255 255 0
-9.979826 -7.843953 7.406460 0 0 255
-10.031079 -7.829142 7.352517 0 0 255
-10.051969 -7.823884 7.325466 0 0 255
-10.049735 -7.823635 7.333642 0 0 255
-10.095961 -7.812323 7.271678 0 0 255
-10.124647 -7.799284 7.272401 0 0 255
-10.191757 -7.658458 7.991963 0 0 255
-10.422120 -7.677117 7.194945 0 0 255
-10.415750 -7.689827 7.130928 0 0 255
-10.436690 -7.684822 7.102087 0 0 255
-10.243995 -7.608985 8.160689 0 0 255
-10.262488 -7.604128 8.138068 0 0 255
-10.234097 -7.617314 8.135526 0 0 255
-10.297052 -7.597963 8.076806 0 0 255
-10.472943 -7.666934 7.112167 0 0 255
-10.269737 -7.597310 8.161175 0 0 255
-10.271329 -7.596713 8.160392 0 0 255
-10.288041 -7.592584 8.138247 0 0 255
-10.288482 -7.592522 8.137362 0 0 255
-10.306607 -7.587731 8.115369 0 0 255
-10.340816 -7.597867 7.949092 0 0 255
-10.511599 -7.630624 7.235068 0 0 255
-10.513573 -7.636514 7.190947 0 0 255
-10.507308 -7.642334 7.171452 0 0 255
-10.521362 -7.639809 7.146670 0 0 255
-10.506695 -7.650523 7.119961 0 0 255
-10.278236 -7.589795 8.185148 0 0 255
-10.297892 -7.584349 8.162946 0 0 255
-10.315757 -7.579897 8.139519 0 0 255
-10.360751 -7.565862 8.098887 0 0 255
-10.337765 -7.573111 8.119134 0 0 255
-10.357306 -7.572048 8.068746 0 0 255
-10.380939 -7.564524 8.048391 0 0 255
-10.549744 -7.608334 7.268245 0 0 255
-10.534463 -7.620081 7.236625 0 0 255
-10.546899 -7.618071 7.213230 0 0 255
-10.519884 -7.630863 7.209226 0 0 255
-10.536871 -7.625420 7.194814 0 0 255
-10.528209 -7.632565 7.173725 0 0 255
-10.518469 -7.638902 7.161056 0 0 255
-10.545629 -7.627334 7.156680 0 0 255
-10.340093 -7.568039 8.145308 0 0 255
-10.390362 -7.552217 8.100837 0 0 255
-10.368823 -7.559023 8.119720 0 0 255
-10.386310 -7.553032 8.107419 0 0 255
-10.383464 -7.558893 8.077631 0 0 255
-10.449040 -7.551347 7.934414 0 0 255
-10.447793 -7.557522 7.897884 0 0 255
-10.582419 -7.578929 7.363758 0 0 255
-10.572061 -7.587497 7.338387 0 0 255
-10.582714 -7.586834 7.311452 0 0 255
-10.558731 -7.598010 7.309073 0 0 255
-10.585180 -7.588419 7.293912 0 0 255
-10.572800 -7.598114 7.267133 0 0 255
-10.560108 -7.599803 7.293360 0 0 255
-10.590489 -7.593348 7.246272 0 0 255
-10.559381 -7.608454 7.239202 0 0 255
-10.577680 -7.602878 7.221823 0 0 255
-10.601379 -7.596766 7.192093 0 0 255
-10.558440 -7.616590 7.189017 0 0 255
-10.556674 -7.617951 7.185333 0 0 255
-10.557453 -7.622928 7.150670 0 0 255
-10.616898 -7.599335 7.129864 0 0 255
-10.382448 -7.497046 8.483055 0 0 255
-10.418887 -7.538195 8.108436 0 0 255
-10.456429 -7.527731 8.066413 0 0 255
-10.445353 -7.535042 8.051327 0 0 255
-10.477733 -7.527491 8.005503 0 0 255
-10.473948 -7.543476 7.912578 0 0 255
-10.610754 -7.548727 7.477192 0 0 255
-10.603269 -7.554314 7.462790 0 0 255
-10.603597 -7.561821 7.412983 0 0 255
-10.605271 -7.560815 7.414618 0 0 255
-10.594775 -7.565575 7.414422 0 0 255
-10.605652 -7.568533 7.363267 0 0 255
-10.592685 -7.570527 7.388333 0 0 255
-10.594323 -7.577601 7.337488 0 0 255
-10.595782 -7.579932 7.318039 0 0 255
-10.612786 -7.575778 7.295207 0 0 255
-10.605297 -7.582221 7.275241 0 0 255
-10.632388 -7.573776 7.250753 0 0 255
-10.655005 -7.569050 7.215179 0 0 255
-10.607599 -7.589725 7.219668 0 0 255
-10.642470 -7.578896 7.187861 0 0 255
-10.609035 -7.593009 7.194087 0 0 255
-10.658157 -7.575332 7.165045 0 0 255
-10.629111 -7.588749 7.162921 0 0 255
-10.648343 -7.583543 7.140399 0 0 255
-10.659964 -7.581994 7.116405 0 0 255
-10.633701 -7.594638 7.111148 0 0 255
-10.644472 -7.592615 7.092724 0 0 255
-10.664824 -7.592417 7.034323 0 0 255
-10.671455 -7.594860 6.998977 0 0 255
-10.643894 -7.604358 7.018000 0 0 255
-10.483953 -7.515012 8.068466 0 0 255
-10.470641 -7.523554 8.051918 0 0 255
-10.505346 -7.513667 8.014476 0 0 255
-10.502076 -7.518426 7.993091 0 0 255
-10.552563 -7.501997 7.951939 0 0 255
-10.530660 -7.508640 7.972943 0 0 255
-10.643432 -7.521882 7.556041 0 0 255
-10.638577 -7.528265 7.528749 0 0 255
-10.616533 -7.542438 7.501168 0 0 255
-10.611592 -7.544803 7.500272 0 0 255
-10.632321 -7.538593 7.479890 0 0 255
-10.615185 -7.552338 7.440698 0 0 255
-10.606242 -7.556870 7.437431 0 0 255
-10.632048 -7.544851 7.439960 0 0 255
-10.631666 -7.544695 7.442100 0 0 255
-10.628181 -7.550412 7.415113 0 0 255
-10.617075 -7.559433 7.388988 0 0 255
-10.646162 -7.545688 7.393122 0 0 255
-10.656500 -7.546209 7.359416 0 0 255
-10.622112 -7.565081 7.337472 0 0 255
-10.634380 -7.555119 7.366317 0 0 255
-10.653192 -7.553680 7.320498 0 0 255
-10.626390 -7.565478 7.322337 0 0 255
-10.668873 -7.550616 7.294451 0 0 255
-10.638735 -7.566841 7.277271 0 0 255
-10.693431 -7.542021 7.278364 0 0 255
-10.681070 -7.551566 7.252497 0 0 255
-10.658333 -7.559621 7.266767 0 0 255
-10.667048 -7.559577 7.241500 0 0 255
-10.670803 -7.565686 7.190731 0 0 255
-10.678980 -7.565782 7.166127 0 0 255
-10.671360 -7.572861 7.142412 0 0 255
-10.684574 -7.570618 7.118246 0 0 255
-10.680405 -7.572635 7.117353 0 0 255
-10.671169 -7.580463 7.093496 0 0 255
-10.685227 -7.575736 7.083025 0 0 255
-10.712333 -7.571567 7.030656 0 0 255
-10.508812 -7.503493 8.070514 0 0 255
-10.535534 -7.499020 8.021246 0 0 255
-10.560169 -7.493852 7.982631 0 0 255
-10.561599 -7.489454 8.007051 0 0 255
-10.526788 -7.506691 7.996977 0 0 255
-10.582788 -7.486827 7.962007 0 0 255
-10.665312 -7.504397 7.605652 0 0 255
-10.652944 -7.513823 7.580585 0 0 255
-10.652826 -7.516457 7.563797 0 0 255
-10.659452 -7.518318 7.532253 0 0 255
-10.674960 -7.516690 7.497358 0 0 255
-10.648295 -7.527343 7.506242 0 0 255
-10.660814 -7.527963 7.465491 0 0 255
-10.678570 -7.523205 7.444386 0 0 255
-10.645621 -7.535942 7.458132 0 0 255
-10.681803 -7.521127 7.448415 0 0 255
-10.648978 -7.537192 7.440158 0 0 255
-10.655997 -7.537553 7.417216 0 0 255
-10.666674 -7.532472 7.418967 0 0 255
-10.723312 -7.519496 7.337298 0 0 255
-10.709394 -7.530043 7.309494 0 0 255
-10.718904 -7.530624 7.277814 0 0 255
-10.697103 -7.545794 7.243044 0 0 255
-10.691298 -7.552051 7.219349 0 0 255
-10.695783 -7.548518 7.229187 0 0 255
-10.573675 -7.480462 8.030155 0 0 255
-10.586320 -7.480770 7.991057 0 0 255
-10.592771 -7.478308 7.988167 0 0 255
-10.619260 -7.466238 7.989023 0 0 255
-10.596889 -7.472710 8.012519 0 0 255
-10.610245 -7.474012 7.964876 0 0 255
-10.631219 -7.467219 7.947564 0 0 255
-10.639832 -7.466216 7.928827 0 0 255
-10.654086 -7.483302 7.775847 0 0 255
-10.675798 -7.478326 7.744552 0 0 255
-10.672008 -7.486052 7.705398 0 0 255
-10.688021 -7.486202 7.657452 0 0 255
-10.701364 -7.484105 7.631973 0 0 255
-10.683275 -7.496684 7.603162 0 0 255
-10.700359 -7.492710 7.578913 0 0 255
-10.702570 -7.493957 7.564315 0 0 255
-10.674024 -7.506902 7.563808 0 0 255
-10.675766 -7.503465 7.581057 0 0 255
-10.689447 -7.501535 7.553493 0 0 255
-10.689164 -7.504413 7.535593 0 0 255
-10.704418 -7.502963 7.500298 0 0 255
-10.678275 -7.511909 7.518750 0 0 255
-10.690721 -7.513580 7.471381 0 0 255
-10.728901 -7.501752 7.436380 0 0 255
-10.730370 -7.506770 7.399420 0 0 255
-10.759691 -7.496617 7.379493 0 0 255
-10.735326 -7.509884 7.364619 0 0 255
-10.750884 -7.504338 7.355067 0 0 255
-10.748267 -7.508192 7.337677 0 0 255
-10.735783 -7.517896 7.311141 0 0 255
-10.744718 -7.517600 7.286857 0 0 255
-10.483594 -7.412347 8.737568 0 0 255
-10.502971 -7.407814 8.710250 0 0 255
-10.503794 -7.407730 8.708376 0 0 255
-10.504571 -7.407567 8.707160 0 0 255
-10.640071 -7.459967 7.968789 0 0 255
-10.661640 -7.448804 7.978177 0 0 255
-10.653604 -7.456004 7.954887 0 0 255
-10.667583 -7.453830 7.928037 0 0 255
-10.669801 -7.452161 7.932398 0 0 255
-10.675711 -7.468708 7.807391 0 0 255
-10.656724 -7.473334 7.832977 0 0 255
-10.713279 -7.454577 7.789164 0 0 255
-10.689033 -7.467261 7.777734 0 0 255
-10.700941 -7.465219 7.756099 0 0 255
-10.708799 -7.465751 7.729593 0 0 255
-10.713015 -7.467517 7.705739 0 0 255
-10.692964 -7.476778 7.704282 0 0 255
-10.706290 -7.474689 7.678792 0 0 255
-10.715074 -7.473787 7.658897 0 0 255
-10.701350 -7.485362 7.623828 0 0 255
-10.714869 -7.474965 7.651833 0 0 255
-10.733010 -7.470936 7.624849 0 0 255
-10.713999 -7.482178 7.607446 0 0 255
-10.731388 -7.477513 7.586808 0 0 255
-10.732182 -7.482595 7.551407 0 0 255
-10.734591 -7.481030 7.554523 0 0 255
-10.734154 -7.486972 7.517148 0 0 255
-10.761965 -7.478535 7.490491 0 0 255
-10.754318 -7.493660 7.414485 0 0 255
-10.782617 -7.478369 7.430995 0 0 255
-10.776024 -7.487640 7.390007 0 0 255
-10.771735 -7.494549 7.357623 0 0 255
-10.775511 -7.495167 7.342535 0 0 255
-10.756124 -7.508692 7.311371 0 0 255
-10.494135 -7.404630 8.756873 0 0 255
-10.489598 -7.406117 8.760508 0 0 255
-10.489485 -7.406146 8.760649 0 0 255
-10.509463 -7.400213 8.740663 0 0 255
-10.510564 -7.399642 8.741158 0 0 255
-10.529993 -7.394008 8.720831 0 0 255
-10.529082 -7.394498 8.720316 0 0 255
-10.530833 -7.393893 8.719116 0 0 255
-10.690406 -7.435873 7.977959 0 0 255
-10.679899 -7.444090 7.955298 0 0 255
-10.714091 -7.429147 7.952267 0 0 255
-10.699163 -7.439015 7.931828 0 0 255
-10.722194 -7.433263 7.901717 0 0 255
-10.738352 -7.426150 7.900619 0 0 255
-10.714035 -7.449515 7.819893 0 0 255
-10.741400 -7.446799 7.757307 0 0 255
-10.729723 -7.456224 7.730224 0 0 255
-10.729384 -7.464255 7.678952 0 0 255
-10.737643 -7.463177 7.661751 0 0 255
-10.756550 -7.458639 7.635830 0 0 255
-10.761923 -7.461077 7.604207 0 0 255
-10.758171 -7.468890 7.564370 0 0 255
-10.798876 -7.452069 7.554454 0 0 255
-10.812227 -7.450275 7.526967 0 0 255
-10.781620 -7.464691 7.522923 0 0 255
-10.794065 -7.476866 7.407208 0 0 255
-10.539107 -7.386970 8.739904 0 0 255
-10.573809 -7.377030 8.702808 0 0 255
-10.576477 -7.375999 8.701694 0 0 255
-10.555883 -7.382296 8.721120 0 0 255
-10.555085 -7.382728 8.720645 0 0 255
-10.556735 -7.382299 8.718598 0 0 255
-10.594741 -7.370528 8.683729 0 0 255
-10.604555 -7.369886 8.659124 0 0 255
-10.622756 -7.366688 8.626554 0 0 255
-10.770995 -7.399012 7.981465 0 0 255
-10.766547 -7.406540 7.945532 0 0 255
-10.739985 -7.420567 7.932161 0 0 255
-10.766059 -7.411695 7.913421 0 0 255
-10.766847 -7.416153 7.882098 0 0 255
-10.785876 -7.419128 7.806933 0 0 255
-10.774882 -7.426117 7.793686 0 0 255
-10.761827 -7.449241 7.681509 0 0 255
-10.792562 -7.442157 7.637463 0 0 255
-10.854255 -7.430925 7.529631 0 0 255
-10.575888 -7.344643 8.907468 0 0 255
-10.573045 -7.351412 8.871746 0 0 255
-10.590376 -7.357656 8.780299 0 0 255
-10.600343 -7.365434 8.700452 0 0 255
-10.619368 -7.359686 8.682065 0 0 255
-10.638210 -7.354287 8.661931 0 0 255
-10.641261 -7.352831 8.662467 0 0 255
-10.629744 -7.359898 8.650249 0 0 255
-10.663720 -7.348153 8.627025 0 0 255
-10.785927 -7.377275 8.079129 0 0 255
-10.774987 -7.386377 8.051980 0 0 255
-10.770893 -7.391323 8.031799 0 0 255
-10.775167 -7.386965 8.047628 0 0 255
-10.786443 -7.388635 8.003694 0 0 255
-10.792690 -7.382792 8.023393 0 0 255
-10.798877 -7.386687 7.979897 0 0 255
-10.791163 -7.393644 7.957259 0 0 255
-10.786927 -7.401058 7.921435 0 0 255
-10.807305 -7.392948 7.914439 0 0 255
-10.782919 -7.408165 7.886940 0 0 255
-10.806863 -7.401657 7.859075 0 0 255
-10.794374 -7.411082 7.834363 0 0 255
-10.837793 -7.397490 7.795470 0 0 255
-10.801918 -7.414425 7.790485 0 0 255
-10.824659 -7.415672 7.715678 0 0 255
-10.855858 -7.410138 7.660185 0 0 255
-10.883489 -7.408432 7.590256 0 0 255
-10.904250 -7.401076 7.577237 0 0 255
-10.904423 -7.401652 7.572985 0 0 255
-10.605556 -7.328562 8.925099 0 0 255
-10.614576 -7.327670 8.904453 0 0 255
-10.623650 -7.327779 8.877130 0 0 255
-10.646222 -7.348310 8.677330 0 0 255
-10.661074 -7.346835 8.643370 0 0 255
-10.663218 -7.344050 8.655205 0 0 255
-10.824556 -7.355590 8.106940 0 0 255
-10.795598 -7.368894 8.105303 0 0 255
-10.812082 -7.365386 8.079785 0 0 255
-10.827814 -7.362658 8.051397 0 0 255
-10.800373 -7.374605 8.054137 0 0 255
-10.800982 -7.375041 8.049512 0 0 255
-10.810066 -7.377776 8.005078 0 0 255
-10.816401 -7.371684 8.026139 0 0 255
-10.825953 -7.373565 7.985885 0 0 255
-10.814013 -7.382914 7.960063 0 0 255
-10.847155 -7.372654 7.929627 0 0 255
-10.819456 -7.383280 7.941723 0 0 255
-10.831534 -7.384414 7.898924 0 0 255
-10.836911 -7.387806 7.861079 0 0 255
-10.865541 -7.377752 7.842544 0 0 255
-10.832506 -7.395226 7.825706 0 0 255
-10.859450 -7.386114 7.805982 0 0 255
-10.855618 -7.393149 7.771447 0 0 255
-10.884877 -7.383058 7.751304 0 0 255
-10.856561 -7.398267 7.735381 0 0 255
-10.906692 -7.388285 7.653305 0 0 255
-10.883265 -7.395954 7.672106 0 0 255
-10.930674 -7.386849 7.592325 0 0 255
-10.906387 -7.394813 7.611719 0 0 255
-10.951004 -7.382320 7.562164 0 0 255
-10.924728 -7.396543 7.546671 0 0 255
-10.654310 -7.312238 8.888343 0 0 255
-10.662420 -7.313998 8.853098 0 0 255
-10.689515 -7.332796 8.651317 0 0 255
-10.735191 -7.317936 8.614058 0 0 255
-10.734652 -7.318090 8.614629 0 0 255
-10.709869 -7.326338 8.633648 0 0 255
-10.713568 -7.325482 8.628367 0 0 255
-10.776197 -7.305958 8.571740 0 0 255
-10.810247 -7.339778 8.251806 0 0 255
-10.839479 -7.330502 8.226439 0 0 255
-10.835670 -7.339991 8.175860 0 0 255
-10.836856 -7.345855 8.134222 0 0 255
-10.852252 -7.342606 8.110208 0 0 255
-10.840445 -7.352689 8.079225 0 0 255
-10.855247 -7.350749 8.048439 0 0 255
-10.843836 -7.359848 8.022699 0 0 255
-10.861812 -7.355021 8.001387 0 0 255
-10.852071 -7.361622 7.986995 0 0 255
-10.866446 -7.359967 7.955611 0 0 255
-10.840244 -7.370937 7.961064 0 0 255
-10.892218 -7.353266 7.923634 0 0 255
-10.886277 -7.355216 7.928367 0 0 255
-10.890737 -7.359255 7.889001 0 0 255
-10.864846 -7.367767 7.909545 0 0 255
-10.864041 -7.373355 7.875553 0 0 255
-10.891016 -7.363656 7.859546 0 0 255
-10.914352 -7.357114 7.833681 0 0 255
-10.913639 -7.362466 7.800944 0 0 255
-10.886546 -7.371664 7.820550 0 0 255
-10.915088 -7.366925 7.767686 0 0 255
-10.886381 -7.377088 7.785741 0 0 255
-10.912150 -7.373693 7.732253 0 0 255
-10.938361 -7.365142 7.711028 0 0 255
-10.940381 -7.363739 7.714235 0 0 255
-10.930420 -7.382374 7.622187 0 0 255
-10.959494 -7.367345 7.634714 0 0 255
-10.953321 -7.375134 7.602143 0 0 255
-10.975251 -7.369922 7.571733 0 0 255
-10.951059 -7.381676 7.566196 0 0 255
-10.994043 -7.364662 7.550850 0 0 255
-10.972285 -7.375609 7.543426 0 0 255
-10.968360 -7.376893 7.546583 0 0 255
-10.679781 -7.304711 8.862616 0 0 255
-10.726398 -7.286783 8.842562 0 0 255
-10.711733 -7.295968 8.825804 0 0 255
-10.719921 -7.295418 8.805366 0 0 255
-10.775734 -7.303947 8.586182 0 0 255
-10.779823 -7.299916 8.600416 0 0 255
-10.797530 -7.296407 8.571315 0 0 255
-10.813334 -7.293064 8.546725 0 0 255
-10.812811 -7.293379 8.546210 0 0 255
-10.812811 -7.293379 8.546210 0 0 255
-10.847107 -7.314389 8.308913 0 0 255
-10.862860 -7.311345 8.282523 0 0 255
-10.850513 -7.321285 8.254045 0 0 255
-10.830530 -7.328108 8.268261 0 0 255
-10.863146 -7.315819 8.252572 0 0 255
-10.873364 -7.315631 8.223816 0 0 255
-10.888506 -7.313481 8.193407 0 0 255
-10.859935 -7.326745 8.190887 0 0 255
-10.876573 -7.323003 8.166445 0 0 255
-10.890045 -7.321619 8.135943 0 0 255
-10.894455 -7.326834 8.089069 0 0 255
-10.890224 -7.334268 8.053112 0 0 255
-10.892978 -7.332696 8.055256 0 0 255
-10.893630 -7.337499 8.022095 0 0 255
-10.893552 -7.337854 8.020004 0 0 255
-10.923597 -7.326393 8.006475 0 0 255
-10.891641 -7.344100 7.984976 0 0 255
-10.925035 -7.330668 7.974438 0 0 255
-10.888102 -7.348920 7.963984 0 0 255
-10.925508 -7.335358 7.942539 0 0 255
-10.914096 -7.344597 7.915881 0 0 255
-10.942633 -7.336772 7.883102 0 0 255
-10.916155 -7.350966 7.868397 0 0 255
-10.941426 -7.342620 7.848594 0 0 255
-10.940126 -7.348341 7.815185 0 0 255
-10.943037 -7.351514 7.785992 0 0 255
-10.944175 -7.356440 7.750608 0 0 255
-10.940474 -7.358692 7.746806 0 0 255
-10.971953 -7.341725 7.764884 0 0 255
-10.966369 -7.350246 7.725821 0 0 255
-10.968776 -7.348660 7.729084 0 0 255
-10.994269 -7.340505 7.707384 0 0 255
-10.968026 -7.354623 7.692471 0 0 255
-10.995958 -7.344787 7.674566 0 0 255
-10.998280 -7.348672 7.642474 0 0 255
-10.980364 -7.361145 7.613859 0 0 255
-11.009418 -7.347708 7.616079 0 0 255
-10.996752 -7.357475 7.589673 0 0 255
-11.014996 -7.353541 7.561763 0 0 255
-11.037049 -7.346785 7.541058 0 0 255
-11.010976 -7.359651 7.533802 0 0 255
-11.164325 -7.402824 6.803127 0 0 255
-11.194438 -7.397065 6.752282 0 0 255
-10.779013 -7.264588 8.832681 0 0 255
-10.768790 -7.274212 8.800037 0 0 255
-10.796877 -7.263211 8.789256 0 0 255
-10.794761 -7.265384 8.781319 0 0 255
-10.822751 -7.283658 8.580316 0 0 255
-10.841500 -7.281270 8.540869 0 0 255
-10.880945 -7.287789 8.382761 0 0 255
-10.864961 -7.299858 8.351112 0 0 255
-10.885990 -7.293893 8.328250 0 0 255
-10.869105 -7.301991 8.325071 0 0 255
-10.888118 -7.297884 8.296038 0 0 255
-10.886835 -7.303329 8.264366 0 0 255
-10.910400 -7.295649 8.245232 0 0 255
-10.887898 -7.307388 8.234838 0 0 255
-10.900152 -7.304171 8.219830 0 0 255
-10.912988 -7.302590 8.192489 0 0 255
-10.901683 -7.311745 8.166060 0 0 255
-10.918099 -7.307422 8.146044 0 0 255
-10.926519 -7.306818 8.125287 0 0 255
-10.917162 -7.314997 8.099498 0 0 255
-10.922010 -7.314012 8.091695 0 0 255
-10.942764 -7.307664 8.072133 0 0 255
-10.915737 -7.320788 8.066002 0 0 255
-10.916587 -7.325473 8.033015 0 0 255
-10.941571 -7.313416 8.038207 0 0 255
-10.949047 -7.312575 8.021753 0 0 255
-10.950355 -7.317025 7.988957 0 0 255
-10.954772 -7.322046 7.943334 0 0 255
-10.941566 -7.332372 7.914865 0 0 255
-10.967030 -7.323765 7.896202 0 0 255
-10.969130 -7.327703 7.864413 0 0 255
-10.967584 -7.338557 7.798319 0 0 255
-10.996799 -7.327918 7.781865 0 0 255
-11.027174 -7.317437 7.760993 0 0 255
-10.997229 -7.333526 7.744117 0 0 255
-11.022094 -7.325318 7.724611 0 0 255
-11.023475 -7.329865 7.690962 0 0 255
-10.995906 -7.339518 7.709001 0 0 255
-11.024957 -7.334326 7.657594 0 0 255
-11.058616 -7.329897 7.587685 0 0 255
-11.031873 -7.340581 7.596600 0 0 255
-11.044583 -7.340285 7.561255 0 0 255
-11.073341 -7.329815 7.545044 0 0 255
-11.061582 -7.338612 7.522295 0 0 255
-11.067578 -7.334528 7.531270 0 0 255
-11.092691 -7.323992 7.526185 0 0 255
-11.203395 -7.374646 6.871903 0 0 255
-11.214443 -7.365994 6.895804 0 0 255
-11.215257 -7.372547 6.850779 0 0 255
-11.218085 -7.370900 6.853203 0 0 255
-11.223417 -7.374491 6.814199 0 0 255
-11.223063 -7.374284 6.816584 0 0 255
-11.208132 -7.379188 6.828455 0 0 255
-11.231005 -7.376319 6.780052 0 0 255
-11.211544 -7.385332 6.778466 0 0 255
-11.217005 -7.386596 6.754235 0 0 255
-11.202089 -7.397184 6.729083 0 0 255
-10.821876 -7.250419 8.799175 0 0 255
-10.800331 -7.257733 8.814759 0 0 255
-10.795031 -7.270692 8.745986 0 0 255
-10.862862 -7.268757 8.559644 0 0 255
-10.865310 -7.267035 8.563681 0 0 255
-10.882936 -7.262080 8.544215 0 0 255
-10.878013 -7.265207 8.538313 0 0 255
-10.891324 -7.258718 8.541508 0 0 255
-10.878842 -7.269755 8.506287 0 0 255
-10.909907 -7.274340 8.385342 0 0 255
-10.939786 -7.270154 8.324962 0 0 255
-10.913273 -7.279372 8.342731 0 0 255
-10.936004 -7.277438 8.288652 0 0 255
-10.912847 -7.284512 8.310528 0 0 255
-10.913608 -7.284239 8.310082 0 0 255
-10.913280 -7.289121 8.279263 0 0 255
-10.924360 -7.286753 8.262181 0 0 255
-10.938853 -7.284128 8.236766 0 0 255
-10.924261 -7.293394 8.219254 0 0 255
-10.948466 -7.294935 8.138249 0 0 255
-10.944297 -7.301912 8.105070 0 0 255
-10.972188 -7.287262 8.118601 0 0 255
-10.971151 -7.287715 8.118699 0 0 255
-10.972145 -7.287206 8.119099 0 0 255
-10.970608 -7.293026 8.085735 0 0 255
-10.971321 -7.292603 8.086390 0 0 255
-10.969201 -7.298722 8.052793 0 0 255
-10.987850 -7.287557 8.070751 0 0 255
-10.964451 -7.306373 8.016944 0 0 255
-10.976492 -7.296756 8.044207 0 0 255
-10.993872 -7.296391 7.995610 0 0 255
-10.980018 -7.308717 7.956029 0 0 255
-10.995846 -7.308339 7.912068 0 0 255
-11.025938 -7.292910 7.924217 0 0 255
-11.024940 -7.298114 7.893277 0 0 255
-11.037953 -7.300103 7.842175 0 0 255
-11.058532 -7.300110 7.781775 0 0 255
-11.036876 -7.306598 7.803070 0 0 255
-11.078732 -7.294740 7.757473 0 0 255
-11.077415 -7.300627 7.723023 0 0 255
-11.050163 -7.310038 7.741712 0 0 255
-11.048021 -7.310817 7.742928 0 0 255
-11.049477 -7.315787 7.706312 0 0 255
-11.078386 -7.305429 7.688937 0 0 255
-11.051099 -7.320251 7.672518 0 0 255
-11.077607 -7.311129 7.654126 0 0 255
-11.052190 -7.324959 7.638676 0 0 255
-11.079688 -7.315477 7.619724 0 0 255
-11.111651 -7.307487 7.577985 0 0 255
-11.088026 -7.315131 7.597531 0 0 255
-11.085617 -7.323746 7.548532 0 0 255
-11.103901 -7.318777 7.527244 0 0 255
-11.087558 -7.329008 7.508605 0 0 255
-11.102692 -7.322950 7.503641 0 0 255
-11.124846 -7.313551 7.499835 0 0 255
-11.108165 -7.322363 7.491406 0 0 255
-11.123186 -7.316577 7.485009 0 0 255
-11.218538 -7.344918 7.020935 0 0 255
-11.236476 -7.339636 7.002700 0 0 255
-11.249009 -7.339495 6.966864 0 0 255
-11.237947 -7.348052 6.943630 0 0 255
-11.244758 -7.348853 6.918433 0 0 255
-11.222606 -7.359118 6.916608 0 0 255
-11.232373 -7.358366 6.892859 0 0 255
-11.223359 -7.365782 6.871039 0 0 255
-11.236464 -7.362975 6.850871 0 0 255
-11.227252 -7.370468 6.829127 0 0 255
-11.254261 -7.358723 6.826338 0 0 255
-11.232740 -7.373642 6.792379 0 0 255
-11.255464 -7.366354 6.773162 0 0 255
-11.240347 -7.376869 6.749071 0 0 255
-10.827802 -7.245909 8.811141 0 0 255
-10.903142 -7.246811 8.584313 0 0 255
-10.877374 -7.260521 8.570674 0 0 255
-10.903248 -7.251826 8.551373 0 0 255
-10.904469 -7.256172 8.519515 0 0 255
-10.950416 -7.241407 8.480840 0 0 255
-10.934722 -7.254768 8.439930 0 0 255
-10.916127 -7.260214 8.459023 0 0 255
-10.953056 -7.250151 8.416207 0 0 255
-10.922726 -7.264295 8.413116 0 0 255
-10.940017 -7.260356 8.388034 0 0 255
-10.941914 -7.259172 8.390180 0 0 255
-10.939565 -7.265467 8.356107 0 0 255
-10.960645 -7.259692 8.331865 0 0 255
-10.962552 -7.265198 8.290435 0 0 255
-10.952476 -7.273516 8.265868 0 0 255
-10.995330 -7.269612 8.165586 0 0 255
-10.995751 -7.269360 8.165997 0 0 255
-10.997042 -7.268788 8.165923 0 0 255
-10.972922 -7.282109 8.149975 0 0 255
-10.998596 -7.273142 8.133039 0 0 255
-10.999047 -7.272897 8.133307 0 0 255
-10.999584 -7.272699 8.133023 0 0 255
-11.013094 -7.274113 8.084197 0 0 255
-10.997139 -7.278976 8.099340 0 0 255
-10.996457 -7.279196 8.099916 0 0 255
-10.995111 -7.285090 8.065506 0 0 255
-11.004417 -7.284220 8.043878 0 0 255
-11.034690 -7.272629 8.030522 0 0 255
-11.006092 -7.288159 8.013336 0 0 255
-11.051648 -7.279208 7.937977 0 0 255
-11.049259 -7.285460 7.904303 0 0 255
-11.051874 -7.284170 7.905024 0 0 255
-11.048668 -7.290425 7.873725 0 0 255
-11.079124 -7.281357 7.843411 0 0 255
-11.065493 -7.291472 7.817567 0 0 255
-11.099984 -7.275367 7.821207 0 0 255
-11.087044 -7.285372 7.794057 0 0 255
-11.105124 -7.281292 7.767584 0 0 255
-11.098477 -7.289750 7.732037 0 0 255
-11.108686 -7.289192 7.705733 0 0 255
-11.106522 -7.295481 7.671151 0 0 255
-11.133383 -7.286252 7.652423 0 0 255
-11.103944 -7.301986 7.636386 0 0 255
-11.130527 -7.292876 7.617693 0 0 255
-11.137934 -7.293839 7.589710 0 0 255
-11.131281 -7.302536 7.552625 0 0 255
-11.139374 -7.297488 7.561746 0 0 255
-11.155587 -7.294440 7.534027 0 0 255
-11.173230 -7.290215 7.509775 0 0 255
-11.146197 -7.302476 7.509280 0 0 255
-11.175465 -7.295564 7.468419 0 0 255
-11.195897 -7.289203 7.449887 0 0 255
-11.263493 -7.311030 7.109627 0 0 255
-11.236534 -7.331108 7.058030 0 0 255
-11.235841 -7.330292 7.065373 0 0 255
-11.259741 -7.321763 7.050775 0 0 255
-11.262673 -7.327054 7.007744 0 0 255
-11.237318 -7.337477 7.014284 0 0 255
-11.251789 -7.335519 6.984580 0 0 255
-11.264773 -7.332965 6.963130 0 0 255
-11.256867 -7.339629 6.942948 0 0 255
-11.264854 -7.340144 6.916170 0 0 255
-11.278830 -7.338264 6.887416 0 0 255
-11.254066 -7.348567 6.893000 0 0 255
-11.245188 -7.355775 6.872132 0 0 255
-11.276402 -7.341333 6.874563 0 0 255
-11.263244 -7.351542 6.846733 0 0 255
-11.261580 -7.352387 6.846109 0 0 255
-11.289035 -7.340001 6.846187 0 0 255
-11.276495 -7.349467 6.821372 0 0 255
-11.266518 -7.357614 6.797611 0 0 255
-10.926870 -7.239373 8.563133 0 0 255
-10.952647 -7.230651 8.544295 0 0 255
-10.927595 -7.243997 8.530913 0 0 255
-10.955193 -7.235505 8.505243 0 0 255
-10.978310 -7.226627 8.495214 0 0 255
-10.966556 -7.237486 8.459021 0 0 255
-10.963098 -7.241829 8.440899 0 0 255
-10.981605 -7.236926 8.418531 0 0 255
-10.970059 -7.246195 8.392081 0 0 255
-10.998550 -7.232850 8.395361 0 0 255
-10.986939 -7.242267 8.368131 0 0 255
-11.005520 -7.236806 8.349179 0 0 255
-10.975194 -7.251719 8.341069 0 0 255
-10.999513 -7.242708 8.328391 0 0 255
-10.987622 -7.257141 8.269344 0 0 255
-11.025453 -7.253766 8.180356 0 0 255
-11.023033 -7.254892 8.180129 0 0 255
-11.024957 -7.254024 8.180137 0 0 255
-11.024864 -7.259065 8.147603 0 0 255
-11.024530 -7.259259 8.147322 0 0 255
-11.050987 -7.245128 8.161675 0 0 255
-11.050666 -7.245290 8.161569 0 0 255
-11.024851 -7.264312 8.113490 0 0 255
-11.052202 -7.249575 8.129177 0 0 255
-11.039644 -7.259812 8.099390 0 0 255
-11.050635 -7.255512 8.095146 0 0 255
-11.039197 -7.265147 8.065989 0 0 255
-11.074140 -7.250960 8.055835 0 0 255
-11.072729 -7.256803 8.021947 0 0 255
-11.072289 -7.262158 7.988395 0 0 255
-11.093366 -7.252022 7.992531 0 0 255
-11.078135 -7.264983 7.952864 0 0 255
-11.079022 -7.269630 7.920018 0 0 255
-11.119664 -7.255580 7.892258 0 0 255
-11.123216 -7.263616 7.829538 0 0 255
-11.113947 -7.270469 7.812136 0 0 255
-11.118967 -7.268187 7.812265 0 0 255
-11.132016 -7.267164 7.780656 0 0 255
-11.126780 -7.274773 7.746493 0 0 255
-11.161409 -7.260763 7.736096 0 0 255
-11.160415 -7.266319 7.702866 0 0 255
-11.137677 -7.273699 7.721520 0 0 255
-11.135234 -7.280129 7.686843 0 0 255
-11.163043 -7.270298 7.669263 0 0 255
-11.158898 -7.277683 7.633365 0 0 255
-11.184489 -7.269117 7.614051 0 0 255
-11.157796 -7.283543 7.598458 0 0 255
-11.189458 -7.271426 7.584456 0 0 255
-11.165752 -7.283913 7.572724 0 0 255
-11.187813 -7.277280 7.551178 0 0 255
-11.193289 -7.278022 7.530296 0 0 255
-11.200273 -7.283082 7.476889 0 0 255
-11.222339 -7.276546 7.454702 0 0 255
-11.298759 -7.292709 7.125408 0 0 255
-11.276617 -7.301584 7.132594 0 0 255
-11.284482 -7.303149 7.099341 0 0 255
-11.296326 -7.301119 7.077817 0 0 255
-11.296453 -7.307986 7.032755 0 0 255
-11.284184 -7.310330 7.053492 0 0 255
-11.273852 -7.318386 7.031373 0 0 255
-11.285795 -7.316344 7.009622 0 0 255
-11.300470 -7.313196 6.987073 0 0 255
-11.275101 -7.324734 6.986395 0 0 255
-11.315216 -7.310310 6.962609 0 0 255
-11.287611 -7.322444 6.964607 0 0 255
-11.276576 -7.331133 6.940431 0 0 255
-11.306292 -7.318417 6.936035 0 0 255
-11.306387 -7.317957 6.938737 0 0 255
-11.296366 -7.326463 6.912779 0 0 255
-11.303916 -7.324577 6.902910 0 0 255
-11.317205 -7.316941 6.913631 0 0 255
-11.300494 -7.330945 6.871507 0 0 255
-11.327138 -7.318923 6.871602 0 0 255
-11.314622 -7.328646 6.845037 0 0 255
-11.361904 -7.322340 6.747405 0 0 255
-11.367316 -7.328536 6.691211 0 0 255
-10.979520 -7.221229 8.526791 0 0 255
-11.016685 -7.227734 8.375460 0 0 255
-11.051093 -7.225390 8.289808 0 0 255
-11.051631 -7.230001 8.258217 0 0 255
-11.078432 -7.220598 8.240814 0 0 255
-11.052168 -7.234631 8.226521 0 0 255
-11.078013 -7.225696 8.208868 0 0 255
-11.051850 -7.239656 8.194757 0 0 255
-11.076832 -7.231158 8.176795 0 0 255
-11.077921 -7.235892 8.142795 0 0 255
-11.099056 -7.229333 8.123487 0 0 255
-11.081980 -7.238671 8.112801 0 0 255
-11.101282 -7.236383 8.071078 0 0 255
-11.099278 -7.242588 8.036586 0 0 255
-11.118582 -7.238931 8.003770 0 0 255
-11.115312 -7.245344 7.971631 0 0 255
-11.143006 -7.236784 7.946109 0 0 255
-11.112537 -7.251929 7.936910 0 0 255
-11.138068 -7.243487 7.916970 0 0 255
-11.157616 -7.238110 7.894633 0 0 255
-11.154061 -7.239933 7.893193 0 0 255
-11.179521 -7.231870 7.870987 0 0 255
-11.188801 -7.230185 7.854747 0 0 255
-11.170571 -7.235908 7.870970 0 0 255
-11.158357 -7.248412 7.825412 0 0 255
-11.156442 -7.254028 7.794496 0 0 255
-11.180483 -7.241234 7.807234 0 0 255
-11.161581 -7.256554 7.762986 0 0 255
-11.179077 -7.246619 7.776323 0 0 255
-11.190448 -7.245135 7.752628 0 0 255
-11.189597 -7.250892 7.717663 0 0 255
-11.187951 -7.256602 7.685327 0 0 255
-11.187305 -7.262203 7.650786 0 0 255
-11.210852 -7.254611 7.631124 0 0 255
-11.213122 -7.258627 7.598334 0 0 255
-11.228882 -7.257715 7.558050 0 0 255
-11.242973 -7.259035 7.508139 0 0 255
-11.248249 -7.257152 7.504920 0 0 255
-11.213980 -7.272357 7.506482 0 0 255
-11.225978 -7.270499 7.483379 0 0 255
-11.247472 -7.264253 7.460998 0 0 255
-11.265327 -7.260259 7.434609 0 0 255
-11.256463 -7.267217 7.415325 0 0 255
-11.281479 -7.256813 7.409668 0 0 255
-11.329513 -7.268147 7.195043 0 0 255
-11.305816 -7.277612 7.202951 0 0 255
-11.319038 -7.276745 7.169820 0 0 255
-11.331592 -7.274097 7.150229 0 0 255
-11.322456 -7.281547 7.128541 0 0 255
-11.331197 -7.281381 7.103985 0 0 255
-11.307448 -7.292558 7.100911 0 0 255
-11.319367 -7.290425 7.079836 0 0 255
-11.307698 -7.299331 7.056103 0 0 255
-11.320157 -7.296864 7.035619 0 0 255
-11.338940 -7.292074 7.011697 0 0 255
-11.309506 -7.305237 7.012363 0 0 255
-11.338157 -7.293611 7.003998 0 0 255
-11.326513 -7.301353 6.987764 0 0 255
-11.328906 -7.307824 6.938639 0 0 255
-11.344934 -7.304465 6.913489 0 0 255
-11.349249 -7.305589 6.893522 0 0 255
-11.380426 -7.300852 6.832910 0 0 255
-11.381773 -7.311866 6.757291 0 0 255
-11.405396 -7.303927 6.739664 0 0 255
-11.379422 -7.317733 6.726001 0 0 255
-11.403961 -7.309615 6.706866 0 0 255
-11.424870 -7.302718 6.690422 0 0 255
-11.422536 -7.310569 6.646185 0 0 255
-11.407366 -7.318587 6.638501 0 0 255
-11.079456 -7.205001 8.339303 0 0 255
-11.082332 -7.203207 8.342544 0 0 255
-11.076797 -7.207171 8.332974 0 0 255
-11.077861 -7.205999 8.337491 0 0 255
-11.112167 -7.192291 8.326073 0 0 255
-11.078150 -7.210792 8.305449 0 0 255
-11.078320 -7.210902 8.304241 0 0 255
-11.079437 -7.210059 8.306437 0 0 255
-11.108001 -7.194575 8.323430 0 0 255
-11.079137 -7.215365 8.272799 0 0 255
-11.078672 -7.215445 8.273640 0 0 255
-11.105231 -7.201186 8.288533 0 0 255
-11.105892 -7.200950 8.288129 0 0 255
-11.107421 -7.205219 8.255866 0 0 255
-11.102163 -7.212725 8.222446 0 0 255
-11.115395 -7.210966 8.195091 0 0 255
-11.125491 -7.215235 8.137687 0 0 255
-11.128147 -7.213161 8.143414 0 0 255
-11.151919 -7.206325 8.118172 0 0 255
-11.125422 -7.220496 8.103668 0 0 255
-11.153542 -7.210246 8.087893 0 0 255
-11.155940 -7.213924 8.056921 0 0 255
-11.194186 -7.214588 7.940443 0 0 255
-11.166460 -7.229042 7.927702 0 0 255
-11.191249 -7.220942 7.907716 0 0 255
-11.202127 -7.220316 7.879880 0 0 255
-11.213099 -7.218331 7.860621 0 0 255
-11.202115 -7.228510 7.826596 0 0 255
-11.206641 -7.233299 7.782163 0 0 255
-11.210033 -7.239881 7.729383 0 0 255
-11.226734 -7.238981 7.686255 0 0 255
-11.226576 -7.236225 7.704658 0 0 255
-11.252270 -7.230306 7.667819 0 0 255
-11.226377 -7.244089 7.654068 0 0 255
-11.252275 -7.235322 7.635154 0 0 255
-11.251787 -7.240761 7.601197 0 0 255
-11.254292 -7.244420 7.570045 0 0 255
-11.251580 -7.245999 7.567716 0 0 255
-11.253325 -7.249760 7.538127 0 0 255
-11.278189 -7.236762 7.549794 0 0 255
-11.277434 -7.241673 7.520053 0 0 255
-11.266310 -7.253140 7.478048 0 0 255
-11.288593 -7.243081 7.478168 0 0 255
-11.292134 -7.247997 7.435781 0 0 255
-11.308545 -7.244479 7.410546 0 0 255
-11.336924 -7.254901 7.259501 0 0 255
-11.340773 -7.259322 7.219443 0 0 255
-11.352524 -7.250614 7.241650 0 0 255
-11.364069 -7.250142 7.210856 0 0 255
-11.341684 -7.265976 7.173479 0 0 255
-11.352321 -7.264729 7.150396 0 0 255
-11.341729 -7.273081 7.127113 0 0 255
-11.353498 -7.271018 7.106030 0 0 255
-11.342863 -7.279418 7.082551 0 0 255
-11.369458 -7.268008 7.078792 0 0 255
-11.331237 -7.288355 7.058494 0 0 255
-11.359016 -7.276397 7.054827 0 0 255
-11.376254 -7.270786 7.040788 0 0 255
-11.374910 -7.272042 7.036551 0 0 255
-11.365732 -7.279189 7.016974 0 0 255
-11.347099 -7.285715 7.029144 0 0 255
-11.355016 -7.287671 6.993204 0 0 255
-11.410878 -7.273923 6.918827 0 0 255
-11.417781 -7.278435 6.869226 0 0 255
-11.411980 -7.284946 6.843878 0 0 255
-11.409313 -7.290693 6.814299 0 0 255
-11.423634 -7.288024 6.789668 0 0 255
-11.401519 -7.300551 6.773008 0 0 255
-11.432236 -7.295022 6.718910 0 0 255
-11.462890 -7.279632 6.729152 0 0 255
-11.450109 -7.294022 6.672999 0 0 255
-11.459835 -7.297622 6.621048 0 0 255
-11.469179 -7.291063 6.636321 0 0 255
-11.110043 -7.193403 8.325063 0 0 255
-11.145163 -7.185421 8.274008 0 0 255
-11.132150 -7.197052 8.236498 0 0 255
-11.192863 -7.190866 8.098683 0 0 255
-11.195399 -7.198697 8.040292 0 0 255
-11.190578 -7.201036 8.039207 0 0 255
-11.227219 -7.186509 8.026281 0 0 255
-11.190930 -7.205744 8.007540 0 0 255
-11.224898 -7.192557 7.993729 0 0 255
-11.194844 -7.209113 7.974142 0 0 255
-11.224380 -7.197825 7.960964 0 0 255
-11.223030 -7.203796 7.926074 0 0 255
-11.246536 -7.196411 7.905191 0 0 255
-11.220590 -7.209837 7.893920 0 0 255
-11.240236 -7.204265 7.872565 0 0 255
-11.221745 -7.219504 7.827620 0 0 255
-11.239407 -7.214880 7.805927 0 0 255
-11.256014 -7.212669 7.771605 0 0 255
-11.253396 -7.224819 7.700220 0 0 255
-11.278318 -7.216531 7.681061 0 0 255
-11.277466 -7.221838 7.649026 0 0 255
-11.304642 -7.212239 7.631796 0 0 255
-11.278373 -7.226453 7.616335 0 0 255
-11.304699 -7.217331 7.598482 0 0 255
-11.277718 -7.231990 7.582231 0 0 255
-11.304438 -7.222569 7.565169 0 0 255
-11.317421 -7.223159 7.523256 0 0 255
-11.313311 -7.226324 7.514714 0 0 255
-11.340571 -7.216578 7.498174 0 0 255
-11.319213 -7.228414 7.483805 0 0 255
-11.342397 -7.222030 7.457348 0 0 255
-11.333196 -7.231466 7.422940 0 0 255
-11.337321 -7.233022 7.400706 0 0 255
-11.365406 -7.220133 7.402220 0 0 255
-11.352445 -7.229966 7.376253 0 0 255
-11.371685 -7.225590 7.348286 0 0 255
-11.357612 -7.230138 7.359965 0 0 255
-11.364624 -7.242180 7.261045 0 0 255
-11.360781 -7.250462 7.218425 0 0 255
-11.374253 -7.247468 7.198394 0 0 255
-11.384572 -7.239260 7.221550 0 0 255
-11.362806 -7.256417 7.173732 0 0 255
-11.376840 -7.252942 7.155188 0 0 255
-11.365315 -7.261892 7.130744 0 0 255
-11.386539 -7.262885 7.062037 0 0 255
-11.424755 -7.257552 6.984673 0 0 255
-11.436368 -7.260359 6.932334 0 0 255
-11.435322 -7.265610 6.901246 0 0 255
-11.449318 -7.262362 6.881332 0 0 255
-11.440609 -7.272133 6.843288 0 0 255
-11.434566 -7.279152 6.815338 0 0 255
-11.456806 -7.267379 6.826726 0 0 255
-11.473546 -7.265242 6.791532 0 0 255
-11.447175 -7.279854 6.773783 0 0 255
-11.495487 -7.278190 6.642930 0 0 255
-11.085292 -7.140239 8.743609 0 0 255
-11.073914 -7.147311 8.730959 0 0 255
-11.084041 -7.146307 8.707798 0 0 255
-11.100934 -7.160781 8.564065 0 0 255
-11.133952 -7.151865 8.525240 0 0 255
-11.163070 -7.161517 8.377046 0 0 255
-11.192750 -7.150683 8.360495 0 0 255
-11.163266 -7.166005 8.347259 0 0 255
-11.191838 -7.154956 8.335361 0 0 255
-11.194651 -7.159371 8.298384 0 0 255
-11.204253 -7.168238 8.212529 0 0 255
-11.218352 -7.177283 8.112321 0 0 255
-11.235397 -7.173637 8.086049 0 0 255
-11.250657 -7.178686 8.008451 0 0 255
-11.251641 -7.182950 7.977820 0 0 255
-11.275827 -7.175049 7.958296 0 0 255
-11.250229 -7.189316 7.940529 0 0 255
-11.280188 -7.181169 7.905682 0 0 255
-11.263215 -7.193063 7.878061 0 0 255
-11.271083 -7.200016 7.809749 0 0 255
-11.299403 -7.189989 7.791941 0 0 255
-11.296379 -7.195960 7.761945 0 0 255
-11.320842 -7.187983 7.742120 0 0 255
-11.287115 -7.206350 7.721509 0 0 255
-11.304441 -7.207473 7.663388 0 0 255
-11.334940 -7.191113 7.680406 0 0 255
-11.342530 -7.190856 7.659811 0 0 255
-11.330483 -7.203449 7.613196 0 0 255
-11.330435 -7.208539 7.580216 0 0 255
-11.357221 -7.193997 7.596287 0 0 255
-11.357611 -7.198726 7.564378 0 0 255
-11.341349 -7.211912 7.526267 0 0 255
-11.362915 -7.205153 7.506991 0 0 255
-11.371697 -7.211708 7.438591 0 0 255
-11.388988 -7.209329 7.403361 0 0 255
-11.384164 -7.216186 7.372882 0 0 255
-11.405169 -7.210710 7.346915 0 0 255
-11.389198 -7.221186 7.325579 0 0 255
-11.390427 -7.228240 7.276072 0 0 255
-11.402411 -7.226235 7.253975 0 0 255
-11.416144 -7.222886 7.235497 0 0 255
-11.398777 -7.235732 7.202844 0 0 255
-11.386499 -7.245172 7.177422 0 0 255
-11.420201 -7.228680 7.185895 0 0 255
-11.410726 -7.236018 7.165930 0 0 255
-11.426620 -7.232020 7.145342 0 0 255
-11.414809 -7.241117 7.120782 0 0 255
-11.472537 -7.226844 7.044362 0 0 255
-11.464656 -7.240311 6.979840 0 0 255
-11.484688 -7.233974 6.962332 0 0 255
-11.463547 -7.245654 6.948326 0 0 255
-11.482909 -7.240234 6.926812 0 0 255
-11.459425 -7.252596 6.915239 0 0 255
-11.483833 -7.252412 6.844848 0 0 255
-11.500015 -7.247789 6.827478 0 0 255
-11.566149 -7.244616 6.654173 0 0 255
-11.540501 -7.256941 6.649187 0 0 255
-11.124884 -7.091604 8.943981 0 0 255
-11.105927 -7.123284 8.793412 0 0 255
-11.129400 -7.114958 8.778757 0 0 255
-11.109370 -7.126979 8.759273 0 0 255
-11.156680 -7.139287 8.540435 0 0 255
-11.156487 -7.144186 8.509125 0 0 255
-11.174544 -7.139525 8.486494 0 0 255
-11.185772 -7.132723 8.497830 0 0 255
-11.205804 -7.143593 8.368351 0 0 255
-11.216600 -7.142554 8.343449 0 0 255
-11.230855 -7.141319 8.309676 0 0 255
-11.237716 -7.151962 8.220298 0 0 255
-11.244966 -7.145315 8.242299 0 0 255
-11.213162 -7.160560 8.236363 0 0 255
-11.255888 -7.147388 8.196770 0 0 255
-11.232268 -7.161375 8.175028 0 0 255
-11.245521 -7.160017 8.144998 0 0 255
-11.246161 -7.164698 8.112665 0 0 255
-11.278245 -7.149955 8.114498 0 0 255
-11.265224 -7.160032 8.087110 0 0 255
-11.274431 -7.161608 8.049859 0 0 255
-11.277452 -7.164655 8.021169 0 0 255
-11.303978 -7.150602 8.034818 0 0 255
-11.276871 -7.169546 7.991041 0 0 255
-11.303075 -7.155723 8.004142 0 0 255
-11.298080 -7.163024 7.971286 0 0 255
-11.292081 -7.171722 7.932276 0 0 255
-11.320786 -7.158283 7.935540 0 0 255
-11.306473 -7.169209 7.906432 0 0 255
-11.325764 -7.163822 7.884902 0 0 255
-11.308747 -7.180898 7.823690 0 0 255
-11.330812 -7.173884 7.804621 0 0 255
-11.349565 -7.172964 7.755607 0 0 255
-11.318318 -7.184739 7.770619 0 0 255
-11.367012 -7.169535 7.726759 0 0 255
-11.337539 -7.185000 7.712562 0 0 255
-11.366080 -7.179574 7.664156 0 0 255
-11.361472 -7.177588 7.690590 0 0 255
-11.353220 -7.191504 7.624248 0 0 255
-11.382070 -7.180613 7.610509 0 0 255
-11.360616 -7.194748 7.581450 0 0 255
-11.384165 -7.184393 7.579772 0 0 255
-11.414139 -7.195845 7.417338 0 0 255
-11.415316 -7.200365 7.384474 0 0 255
-11.439094 -7.187598 7.397827 0 0 255
-11.427510 -7.198541 7.360584 0 0 255
-11.436954 -7.193175 7.367809 0 0 255
-11.422976 -7.205097 7.331217 0 0 255
-11.433606 -7.203692 7.309185 0 0 255
-11.420965 -7.213961 7.279441 0 0 255
-11.426313 -7.214576 7.259754 0 0 255
-11.443313 -7.210092 7.239075 0 0 255
-11.432462 -7.218771 7.214421 0 0 255
-11.490025 -7.205436 7.132375 0 0 255
-11.513481 -7.198574 7.108232 0 0 255
-11.471793 -7.225066 7.058108 0 0 255
-11.494727 -7.219662 7.026014 0 0 255
-11.488474 -7.227291 6.994703 0 0 255
-11.502902 -7.229095 6.940651 0 0 255
-11.508030 -7.231829 6.907825 0 0 255
-11.620354 -7.225051 6.622519 0 0 255
-11.605160 -7.236357 6.593500 0 0 255
-11.629448 -7.228376 6.574199 0 0 255
-11.607144 -7.243777 6.539394 0 0 255
-11.124017 -7.085174 8.988358 0 0 255
-11.148477 -7.086652 8.907001 0 0 255
-11.130850 -7.098808 8.879590 0 0 255
-11.140424 -7.106158 8.803693 0 0 255
-11.155645 -7.103099 8.778954 0 0 255
-11.143730 -7.112179 8.754816 0 0 255
-11.190088 -7.117209 8.586121 0 0 255
-11.200091 -7.121713 8.527475 0 0 255
-11.215674 -7.118478 8.502827 0 0 255
-11.215696 -7.133417 8.405558 0 0 255
-11.242424 -7.131095 8.342278 0 0 255
-11.248399 -7.127078 8.350897 0 0 255
-11.267945 -7.119612 8.342153 0 0 255
-11.258280 -7.130506 8.299615 0 0 255
-11.263239 -7.135743 8.250992 0 0 255
-11.291203 -7.125556 8.235262 0 0 255
-11.267488 -7.138138 8.222944 0 0 255
-11.283484 -7.134867 8.197319 0 0 255
-11.288441 -7.132216 8.200027 0 0 255
-11.286527 -7.138231 8.166504 0 0 255
-11.311138 -7.130227 8.146412 0 0 255
-11.306609 -7.139997 8.096106 0 0 255
-11.328451 -7.137923 8.045549 0 0 255
-11.314170 -7.146640 8.030708 0 0 255
-11.331236 -7.142910 8.004919 0 0 255
-11.319118 -7.152508 7.978018 0 0 255
-11.333489 -7.150083 7.951654 0 0 255
-11.352929 -7.144829 7.928829 0 0 255
-11.343575 -7.157436 7.874225 0 0 255
-11.367488 -7.149432 7.856182 0 0 255
-11.372604 -7.151733 7.826191 0 0 255
-11.374950 -7.155339 7.795856 0 0 255
-11.388285 -7.168316 7.672294 0 0 255
-11.413930 -7.159537 7.654214 0 0 255
-11.443896 -7.160687 7.558846 0 0 255
-11.448876 -7.179439 7.422223 0 0 255
-11.463708 -7.176283 7.399261 0 0 255
-11.449397 -7.186198 7.376717 0 0 255
-11.441516 -7.196157 7.335023 0 0 255
-11.458140 -7.191037 7.319588 0 0 255
-11.520400 -7.182920 7.189814 0 0 255
-11.516497 -7.183824 7.195379 0 0 255
-11.534619 -7.179878 7.167903 0 0 255
-11.513316 -7.193681 7.140562 0 0 255
-11.538789 -7.185544 7.118809 0 0 255
-11.519751 -7.206183 7.040337 0 0 255
-11.509819 -7.215253 7.010448 0 0 255
-11.651637 -7.217457 6.580185 0 0 255
-11.674147 -7.215930 6.524110 0 0 255
-11.167595 -7.070904 8.953400 0 0 255
-11.149931 -7.080006 8.945988 0 0 255
-11.157207 -7.079407 8.928553 0 0 255
-11.192499 -7.069139 8.891856 0 0 255
-11.217943 -7.102311 8.601379 0 0 255
-11.228418 -7.102796 8.567496 0 0 255
-11.255563 -7.088109 8.583467 0 0 255
-11.236914 -7.103057 8.540889 0 0 255
-11.248057 -7.102632 8.510979 0 0 255
-11.268577 -7.100501 8.464662 0 0 255
-11.288012 -7.095277 8.441654 0 0 255
-11.282892 -7.102243 8.411343 0 0 255
-11.303779 -7.095776 8.392171 0 0 255
-11.284180 -7.116246 8.316443 0 0 255
-11.298425 -7.110641 8.311141 0 0 255
-11.314519 -7.106170 8.293028 0 0 255
-11.288589 -7.122171 8.264955 0 0 255
-11.289603 -7.121349 8.267331 0 0 255
-11.312897 -7.114278 8.245033 0 0 255
-11.347027 -7.105269 8.203555 0 0 255
-11.315350 -7.117973 8.213792 0 0 255
-11.312984 -7.124206 8.180175 0 0 255
-11.331975 -7.118517 8.161496 0 0 255
-11.358288 -7.109146 8.145304 0 0 255
-11.348742 -7.117049 8.121868 0 0 255
-11.365254 -7.113466 8.096767 0 0 255
-11.335147 -7.127341 8.094772 0 0 255
-11.411566 -7.123546 7.895349 0 0 255
-11.412379 -7.133173 7.830316 0 0 255
-11.400721 -7.141947 7.807418 0 0 255
-11.423653 -7.134884 7.786127 0 0 255
-11.420567 -7.141480 7.752248 0 0 255
-11.463346 -7.133015 7.681881 0 0 255
-11.455057 -7.144476 7.631605 0 0 255
-11.452993 -7.150976 7.595364 0 0 255
-11.482749 -7.134982 7.612169 0 0 255
-11.469921 -7.147040 7.571325 0 0 255
-11.466919 -7.153339 7.539142 0 0 255
-11.491490 -7.145065 7.520920 0 0 255
-11.491578 -7.149631 7.490953 0 0 255
-11.482100 -7.160285 7.449423 0 0 255
-11.472609 -7.168337 7.424862 0 0 255
-11.486149 -7.165779 7.401800 0 0 255
-11.474342 -7.174831 7.377517 0 0 255
-11.545113 -7.171658 7.190618 0 0 255
-11.555931 -7.163182 7.214038 0 0 255
-11.577514 -7.160499 7.168205 0 0 255
-11.548306 -7.177647 7.142268 0 0 255
-11.702428 -7.195632 6.573252 0 0 255
-11.183537 -7.048889 9.049908 0 0 255
-11.200346 -7.048694 9.001884 0 0 255
-11.203868 -7.060405 8.915352 0 0 255
-11.314517 -7.076188 8.488139 0 0 255
-11.341817 -7.066115 8.473629 0 0 255
-11.309384 -7.088517 8.422970 0 0 255
-11.314311 -7.082498 8.447684 0 0 255
-11.335855 -7.074046 8.439501 0 0 255
-11.298584 -7.101636 8.369272 0 0 255
-11.321825 -7.098355 8.322462 0 0 255
-11.344396 -7.093400 8.288515 0 0 255
-11.363538 -7.087696 8.269484 0 0 255
-11.339344 -7.100319 8.258301 0 0 255
-11.362567 -7.092579 8.240564 0 0 255
-11.383976 -7.090168 8.193460 0 0 255
-11.383529 -7.090360 8.193527 0 0 255
-11.357733 -7.104798 8.175224 0 0 255
-11.382722 -7.096108 8.158483 0 0 255
-11.390997 -7.099678 8.110993 0 0 255
-11.394803 -7.104267 8.069971 0 0 255
-11.392138 -7.110488 8.037292 0 0 255
-11.418463 -7.101616 8.017829 0 0 255
-11.441510 -7.109680 7.897765 0 0 255
-11.425174 -7.121447 7.869105 0 0 255
-11.451247 -7.124190 7.774785 0 0 255
-11.470784 -7.119849 7.745731 0 0 255
-11.488997 -7.115255 7.722218 0 0 255
-11.488208 -7.121621 7.683110 0 0 255
-11.479538 -7.129103 7.659847 0 0 255
-11.505709 -7.116546 7.664808 0 0 255
-11.507044 -7.117108 7.657229 0 0 255
-11.494180 -7.126063 7.636683 0 0 255
-11.508819 -7.123133 7.612821 0 0 255
-11.497299 -7.132086 7.588340 0 0 255
-11.496080 -7.133006 7.585933 0 0 255
-11.516328 -7.131659 7.535327 0 0 255
-11.511105 -7.130074 7.560946 0 0 255
-11.494118 -7.139047 7.552373 0 0 255
-11.509305 -7.131082 7.559668 0 0 255
-11.510307 -7.130681 7.559337 0 0 255
-11.516486 -7.136098 7.505966 0 0 255
-11.505447 -7.147856 7.461823 0 0 255
-11.504190 -7.148526 7.461156 0 0 255
-11.520149 -7.146553 7.427191 0 0 255
-11.575492 -7.143137 7.287116 0 0 255
-11.577597 -7.147403 7.253189 0 0 255
-11.546589 -7.158795 7.269988 0 0 255
-11.556260 -7.161527 7.223848 0 0 255
-11.602311 -7.142532 7.212395 0 0 255
-11.572499 -7.158829 7.193779 0 0 255
-11.605240 -7.145512 7.184420 0 0 255
-11.592425 -7.158540 7.137228 0 0 255
-11.592994 -7.163374 7.104099 0 0 255
-11.721711 -7.190188 6.552120 0 0 255
-11.365790 -7.057869 8.456964 0 0 255
-11.361012 -7.065409 8.421923 0 0 255
-11.363250 -7.078320 8.331355 0 0 255
-11.394384 -7.066823 8.314852 0 0 255
-11.370602 -7.079625 8.301281 0 0 255
-11.367570 -7.080669 8.303384 0 0 255
-11.393642 -7.071923 8.283836 0 0 255
-11.389014 -7.078841 8.252393 0 0 255
-11.395638 -7.075872 8.252286 0 0 255
-11.385063 -7.085249 8.222279 0 0 255
-11.408579 -7.077497 8.203758 0 0 255
-11.406773 -7.083365 8.170869 0 0 255
-11.407849 -7.087256 8.142400 0 0 255
-11.430518 -7.075767 8.150679 0 0 255
-11.421803 -7.085100 8.115495 0 0 255
-11.426708 -7.082147 8.120336 0 0 255
-11.446308 -7.076840 8.097383 0 0 255
-11.420082 -7.090878 8.082956 0 0 255
-11.441963 -7.084490 8.060348 0 0 255
-11.443917 -7.088432 8.028955 0 0 255
-11.462863 -7.088830 7.970811 0 0 255
-11.478842 -7.085301 7.946911 0 0 255
-11.453136 -7.108866 7.868962 0 0 255
-11.472671 -7.102007 7.856299 0 0 255
-11.493083 -7.094306 7.846549 0 0 255
-11.478671 -7.106288 7.810850 0 0 255
-11.506627 -7.096682 7.791364 0 0 255
-11.519189 -7.095967 7.759176 0 0 255
-11.500712 -7.106017 7.747974 0 0 255
-11.516388 -7.103805 7.716386 0 0 255
-11.515285 -7.109080 7.685300 0 0 255
-11.529753 -7.106040 7.662648 0 0 255
-11.516626 -7.109481 7.678757 0 0 255
-11.519178 -7.114903 7.635992 0 0 255
-11.531786 -7.112714 7.613255 0 0 255
-11.521410 -7.120946 7.590128 0 0 255
-11.534163 -7.118419 7.569174 0 0 255
-11.532090 -7.123937 7.539336 0 0 255
-11.530654 -7.129395 7.508033 0 0 255
-11.531902 -7.128808 7.508192 0 0 255
-11.529588 -7.134804 7.475964 0 0 255
-11.608675 -7.109322 7.409842 0 0 255
-11.600286 -7.114833 7.398583 0 0 255
-11.575348 -7.123428 7.415794 0 0 255
-11.592094 -7.121730 7.377726 0 0 255
-11.621282 -7.112998 7.348949 0 0 255
-11.596150 -7.121526 7.367149 0 0 255
-11.613100 -7.122137 7.313466 0 0 255
