ply
format ascii 1.0
element vertex 1294
property float x
property float y
property float z
property uchar red
property uchar green
property uchar blue
end_header
9.635961 -7.835944 8.933912 0 0 0
9.634343 -7.813220 8.907915 0 0 0
9.631854 -7.809862 8.865038 0 0 0
9.630246 -7.789414 8.839035 0 0 0
9.701158 -10.470261 9.826104 0 0 0
9.706292 -10.461286 9.915928 0 0 0
9.708347 -10.435619 9.953881 0 0 0
9.696054 -10.467484 9.737870 0 0 0
9.697978 -10.453025 9.772532 0 0 0
9.687744 -10.463746 9.594116 0 0 0
9.686817 -10.480856 9.576522 0 0 0
9.646635 -9.331487 8.983777 0 0 0
9.684280 -9.029170 9.663770 0 0 0
9.695164 -8.940427 9.860495 0 0 0
9.677812 -8.997711 9.554463 0 0 0
9.702548 -8.834687 9.998089 0 0 0
9.660974 -9.120819 9.251382 0 0 0
9.668254 -9.056806 9.383417 0 0 0
9.707507 -8.769961 10.089911 0 0 0
9.664975 -9.026957 9.329279 0 0 0
9.670634 -8.974627 9.432101 0 0 0
9.679331 -8.945795 9.585513 0 0 0
9.686500 -8.903440 9.713623 0 0 0
9.692945 -8.827046 9.832281 0 0 0
9.711881 -8.711975 10.170978 0 0 0
9.661148 -9.039571 9.261772 0 0 0
9.660341 -9.039241 9.247814 0 0 0
9.671805 -8.944903 9.455098 0 0 0
9.674507 -8.928431 9.503441 0 0 0
9.672937 -8.960613 9.473309 0 0 0
9.679625 -8.919307 9.592980 0 0 0
9.688451 -8.844032 9.752822 0 0 0
9.691306 -8.841482 9.802555 0 0 0
9.692383 -8.826956 9.822533 0 0 0
9.672193 -8.921557 9.463935 0 0 0
9.674226 -8.898721 9.501252 0 0 0
9.681830 -8.879848 9.634804 0 0 0
9.690189 -8.818220 9.785292 0 0 0
9.691606 -8.792597 9.812154 0 0 0
9.693860 -8.806295 9.850018 0 0 0
9.671524 -8.866614 9.457297 0 0 0
9.691806 -8.760663 9.818535 0 0 0
9.702813 -8.667314 10.017809 0 0 0
9.692420 -8.718644 9.832954 0 0 0
9.692615 -8.699608 9.838072 0 0 0
9.696378 -8.676667 9.905369 0 0 0
9.696008 -8.694248 9.897399 0 0 0
9.794230 -8.053629 11.658257 0 0 0
9.690762 -8.686449 9.807117 0 0 0
9.791915 -8.029399 11.620317 0 0 0
9.692551 -8.640235 9.842331 0 0 0
9.682770 -8.535696 9.682220 0 0 0
9.684623 -8.533287 9.714541 0 0 0
9.689224 -8.482323 9.798923 0 0 0
9.667830 -8.253266 9.448725 0 0 0
9.644785 -8.365492 9.039012 0 0 0
9.653331 -8.265430 9.196230 0 0 0
9.656137 -8.233492 9.247763 0 0 0
9.653172 -8.208023 9.198672 0 0 0
9.655443 -8.146802 9.243578 0 0 0
9.652096 -8.149541 9.185291 0 0 0
9.653824 -8.128715 9.217141 0 0 0
9.655190 -8.110985 9.242436 0 0 0
9.650511 -8.122356 9.160257 0 0 0
9.653628 -8.091462 9.217113 0 0 0
9.648244 -8.031040 9.129240 0 0 0
9.638366 -8.052315 8.956028 0 0 0
9.628036 -7.743105 8.804895 0 0 0
9.667833 -9.144456 9.368206 0 0 0
9.697689 -8.945180 9.903842 0 0 0
9.681870 -8.909661 9.632801 0 0 0
9.690010 -8.868334 9.777659 0 0 0
9.693646 -8.845463 9.842764 0 0 0
9.685269 -8.869608 9.695335 0 0 0
9.669724 -8.888708 9.424099 0 0 0
9.683123 -8.560450 9.686078 0 0 0
9.644481 -8.322275 9.037650 0 0 0
9.650616 -8.278951 9.147934 0 0 0
9.650281 -8.237880 9.145836 0 0 0
9.651990 -8.216750 9.177381 0 0 0
9.650743 -8.161013 9.160772 0 0 0
9.695674 -8.970078 9.866638 0 0 0
9.666915 -8.992113 9.366048 0 0 0
9.650447 -9.030649 9.077041 0 0 0
9.669520 -8.929682 9.416861 0 0 0
9.671484 -8.898656 9.453732 0 0 0
9.669575 -8.889665 9.421422 0 0 0
9.679307 -8.857549 9.593069 0 0 0
9.692615 -8.699608 9.838072 0 0 0
9.648963 -8.226797 9.123983 0 0 0
9.700958 -10.434433 9.825874 0 0 0
9.657978 -9.252123 9.187594 0 0 0
9.657826 -9.246934 9.185423 0 0 0
9.660922 -9.276567 9.236416 0 0 0
9.662813 -9.267715 9.270014 0 0 0
9.658733 -9.222672 9.203346 0 0 0
9.649726 -9.092082 9.058988 0 0 0
9.695764 -9.008129 9.864775 0 0 0
9.695281 -9.002361 9.856922 0 0 0
9.764214 -7.860360 11.155313 0 0 0
9.769460 -7.859743 11.246335 0 0 0
9.659785 -9.313680 9.213374 0 0 0
9.661354 -9.313455 9.240575 0 0 0
9.661122 -9.293028 9.238400 0 0 0
9.670806 -8.865932 9.444921 0 0 0
9.796935 -8.180890 11.693662 0 0 0
9.795277 -8.088104 11.673296 0 0 0
9.795327 -8.046349 11.677946 0 0 0
9.795035 -8.009966 11.676166 0 0 0
9.794925 -7.968025 11.678044 0 0 0
9.792390 -7.863032 11.643600 0 0 0
9.791864 -7.827897 11.637672 0 0 0
9.790091 -7.682391 11.620049 0 0 0
9.781166 -7.456547 11.485740 0 0 0
9.783779 -7.422990 11.534096 0 0 0
9.782000 -7.436377 11.502016 0 0 0
9.779074 -7.430727 11.451808 0 0 0
9.780524 -7.417368 11.478162 0 0 0
9.779010 -7.429032 11.450845 0 0 0
9.783670 -7.390766 11.535121 0 0 0
9.780911 -7.400334 11.486418 0 0 0
9.782059 -7.407582 11.505662 0 0 0
9.778959 -7.409774 11.451730 0 0 0
9.778987 -7.407682 11.452398 0 0 0
9.778741 -7.399848 11.448815 0 0 0
9.776408 -7.405437 11.407877 0 0 0
9.776343 -7.405317 11.406771 0 0 0
9.781529 -7.350695 11.501617 0 0 0
9.780198 -7.361737 11.477549 0 0 0
9.781689 -7.375671 11.502120 0 0 0
9.777098 -7.386456 11.421564 0 0 0
9.776659 -7.382047 11.414316 0 0 0
9.774370 -7.385831 11.374327 0 0 0
9.772899 -7.402411 11.347315 0 0 0
9.788512 -7.652598 11.595389 0 0 0
9.795292 -8.141333 11.668749 0 0 0
9.794848 -8.004947 11.673389 0 0 0
9.795013 -8.006781 11.676094 0 0 0
9.789923 -7.814863 11.605176 0 0 0
9.789927 -7.718261 11.613988 0 0 0
9.788912 -7.718921 11.596328 0 0 0
9.789163 -7.685889 11.603681 0 0 0
9.789034 -7.659122 11.603831 0 0 0
9.787365 -7.652723 11.575483 0 0 0
9.787344 -7.653262 11.575078 0 0 0
9.788749 -7.636806 11.600922 0 0 0
9.788967 -7.600949 11.607947 0 0 0
9.788139 -7.569034 11.596490 0 0 0
9.786851 -7.580071 11.573151 0 0 0
9.787361 -7.519013 11.587505 0 0 0
9.787301 -7.453376 11.592407 0 0 0
9.796728 -8.154019 11.692510 0 0 0
9.794861 -8.138613 11.661529 0 0 0
9.787287 -7.549438 11.583458 0 0 0
9.791720 -7.788471 11.638721 0 0 0
9.792102 -7.748727 11.648941 0 0 0
9.788842 -7.542386 11.611073 0 0 0
9.624559 -9.701926 8.567518 0 0 0
9.630246 -9.666596 8.669304 0 0 0
9.627520 -8.974875 8.684582 0 0 0
9.627354 -8.948801 8.684084 0 0 0
9.625943 -8.765805 8.676151 0 0 0
9.624782 -8.712438 8.660830 0 0 0
9.731840 -8.014013 10.580140 0 0 0
9.740154 -7.853277 10.738823 0 0 0
9.751329 -7.715367 10.945037 0 0 0
9.751046 -7.711950 10.940450 0 0 0
9.753353 -7.699792 10.981530 0 0 0
9.757904 -7.607050 11.068830 0 0 0
9.759972 -7.581869 11.106956 0 0 0
9.762369 -7.537343 11.152528 0 0 0
9.761912 -7.532123 11.145093 0 0 0
9.628877 -9.046527 8.701627 0 0 0
9.626679 -8.852608 8.681067 0 0 0
9.626225 -8.813587 8.676678 0 0 0
9.741067 -7.863032 10.753767 0 0 0
9.740211 -7.890660 10.736423 0 0 0
9.742518 -7.846108 10.780445 0 0 0
9.630124 -9.187449 8.710503 0 0 0
9.629218 -9.094466 8.703227 0 0 0
9.626825 -8.893967 8.679861 0 0 0
9.626269 -8.851395 8.674057 0 0 0
9.737926 -7.925676 10.693632 0 0 0
9.755935 -7.616183 11.033865 0 0 0
9.629713 -9.631483 8.663248 0 0 0
9.627222 -9.601414 8.622758 0 0 0
9.630367 -9.611002 8.676410 0 0 0
9.736969 -7.957661 10.674153 0 0 0
9.734290 -7.964694 10.627064 0 0 0
9.744819 -7.802632 10.824260 0 0 0
9.750890 -7.681581 10.940475 0 0 0
9.735245 -7.944481 10.645454 0 0 0
9.746206 -7.776865 10.850667 0 0 0
9.749385 -7.734167 10.909624 0 0 0
9.640658 -7.503683 9.045391 0 0 0
9.733248 -8.057296 10.600647 0 0 0
9.734030 -8.029665 10.616689 0 0 0
9.733740 -7.923619 10.621261 0 0 0
9.637294 -7.484900 8.988749 0 0 0
6.908074 -11.068547 11.732012 255 0 0
6.894864 -11.052759 11.729599 255 0 0
6.941535 -11.067920 11.733589 255 0 0
6.878564 -11.033293 11.726624 255 0 0
9.467341 -10.381310 11.781310 255 0 0
9.411588 -10.405837 11.781301 255 0 0
9.405312 -10.386403 11.778823 255 0 0
9.420684 -10.382937 11.779194 255 0 0
9.479998 -10.405673 11.784651 255 0 0
9.421095 -10.365717 11.777290 255 0 0
9.639051 -8.909962 11.625545 255 0 0
9.632679 -8.868217 11.620571 255 0 0
9.678983 -8.888080 11.625068 255 0 0
6.879139 -10.854341 11.706679 255 0 0
6.907659 -8.552519 11.451176 255 0 0
6.876663 -8.539703 11.448220 255 0 0
6.902287 -8.537030 11.449183 255 0 0
6.922637 -8.493415 11.445317 255 0 0
6.942869 -8.485280 11.445406 255 0 0
7.577253 -7.956368 11.417605 255 0 0
7.095585 -10.874449 11.719581 255 0 0
7.191513 -10.883917 11.725360 255 0 0
7.204833 -10.860229 11.723372 255 0 0
7.225982 -10.798039 11.717472 255 0 0
7.204376 -10.814546 11.718251 255 0 0
7.200795 -10.795395 11.715937 255 0 0
7.251324 -10.791640 11.718004 255 0 0
7.212891 -10.782978 11.715147 255 0 0
7.302592 -10.763920 11.717436 255 0 0
7.284330 -10.759728 11.716069 255 0 0
7.222208 -10.756764 11.712679 255 0 0
7.303456 -10.742605 11.715099 255 0 0
7.286766 -10.739555 11.713938 255 0 0
7.262047 -10.737823 11.712526 255 0 0
7.266403 -10.705539 11.709138 255 0 0
7.407124 -10.581492 11.702222 255 0 0
7.487657 -10.578950 11.705902 255 0 0
7.487993 -10.558832 11.703673 255 0 0
6.675454 -10.370429 11.642642 255 0 0
7.502029 -10.529618 11.701103 255 0 0
7.601106 -10.507192 11.703479 255 0 0
7.552657 -10.511193 11.701540 255 0 0
7.520787 -10.509760 11.699811 255 0 0
7.496688 -10.508974 11.698537 255 0 0
7.803558 -10.361759 11.697214 255 0 0
7.770672 -10.356994 11.695064 255 0 0
7.702344 -10.342834 11.690119 255 0 0
7.808702 -10.345362 11.695638 255 0 0
7.830156 -10.328871 11.694853 255 0 0
8.248981 -10.301115 11.712375 255 0 0
8.278957 -10.264265 11.709739 255 0 0
9.018948 -10.387564 11.759931 255 0 0
8.254076 -10.231740 11.704883 255 0 0
8.241413 -10.241708 11.705373 255 0 0
8.218887 -10.228165 11.702751 255 0 0
8.244277 -10.208119 11.701764 255 0 0
8.260974 -10.207110 11.702473 255 0 0
8.260463 -10.206050 11.702330 255 0 0
8.222386 -10.195712 11.699302 255 0 0
8.246570 -10.131407 11.693315 255 0 0
7.135136 -9.373262 11.553979 255 0 0
7.077497 -8.948288 11.503710 255 0 0
7.102609 -8.926820 11.502549 255 0 0
7.097225 -8.906771 11.500047 255 0 0
7.160241 -8.880282 11.500194 255 0 0
7.114108 -8.895464 11.499617 255 0 0
7.137401 -8.878497 11.498870 255 0 0
7.141114 -8.891406 11.500494 255 0 0
7.098677 -8.885060 11.497696 255 0 0
7.097951 -8.892247 11.498463 255 0 0
7.119857 -8.889404 11.499224 255 0 0
7.116462 -8.889098 11.499023 255 0 0
7.078074 -8.883968 11.496559 255 0 0
7.056497 -8.882668 11.495353 255 0 0
7.009076 -8.880732 11.492802 255 0 0
6.972197 -8.901354 11.493288 255 0 0
7.161378 -8.860281 11.498017 255 0 0
7.118325 -8.867867 11.496744 255 0 0
7.083672 -8.842026 11.492153 255 0 0
7.060573 -8.840899 11.490891 255 0 0
7.058289 -8.820371 11.488488 255 0 0
7.064723 -8.799425 11.486466 255 0 0
7.098439 -8.777157 11.485641 255 0 0
7.098439 -8.777157 11.485641 255 0 0
7.122583 -8.747604 11.483532 255 0 0
7.091869 -8.736148 11.480742 255 0 0
7.144704 -8.591557 11.467204 255 0 0
7.133864 -8.565043 11.463711 255 0 0
6.934566 -8.507584 11.447487 255 0 0
7.670672 -8.458134 11.478208 255 0 0
6.931894 -8.464050 11.442495 255 0 0
6.953862 -8.469193 11.444151 255 0 0
6.954396 -8.465130 11.443724 255 0 0
6.945543 -8.449607 11.441556 255 0 0
6.967362 -8.443134 11.441908 255 0 0
7.034000 -10.957549 11.725823 255 0 0
7.264564 -10.778923 11.717237 255 0 0
7.264118 -10.779561 11.717287 255 0 0
7.251903 -10.796827 11.718613 255 0 0
7.246354 -10.755541 11.713732 255 0 0
7.203755 -10.762464 11.712407 255 0 0
7.233684 -10.733251 11.710620 255 0 0
7.250192 -10.713528 11.709231 255 0 0
6.668291 -10.551605 11.662512 255 0 0
6.666772 -10.523783 11.659330 255 0 0
7.466042 -10.576026 11.704513 255 0 0
7.442477 -10.571755 11.702875 255 0 0
7.554988 -10.557930 11.706871 255 0 0
7.523400 -10.556360 11.705141 255 0 0
7.583888 -10.539000 11.706182 255 0 0
7.573246 -10.535769 11.705297 255 0 0
7.535839 -10.534080 11.703266 255 0 0
7.556274 -10.539463 11.704873 255 0 0
7.476938 -10.537281 11.700724 255 0 0
7.601672 -10.516003 11.704489 255 0 0
7.478621 -10.513555 11.698158 255 0 0
7.738194 -10.358517 11.693634 255 0 0
7.739482 -10.354854 11.693288 255 0 0
7.778922 -10.334827 11.692996 255 0 0
7.751358 -10.349277 11.693251 255 0 0
7.837298 -10.306257 11.692680 255 0 0
8.216038 -10.261873 11.706374 255 0 0
8.241069 -10.281471 11.709793 255 0 0
8.241034 -10.281405 11.709784 255 0 0
7.065495 -8.946495 11.502919 255 0 0
7.152568 -8.929732 11.505335 255 0 0
7.144419 -8.908782 11.502596 255 0 0
7.168070 -8.909641 11.503857 255 0 0
7.120998 -8.908015 11.501358 255 0 0
7.116464 -8.863962 11.496217 255 0 0
7.092410 -8.863046 11.494930 255 0 0
7.030025 -8.862397 11.491787 255 0 0
7.235014 -8.834779 11.498796 255 0 0
7.184649 -8.842424 11.497169 255 0 0
7.107068 -8.842813 11.493394 255 0 0
7.045757 -8.840296 11.490094 255 0 0
7.051101 -8.840834 11.490418 255 0 0
7.033421 -8.835606 11.488964 255 0 0
7.054626 -8.819811 11.488245 255 0 0
7.055774 -8.798822 11.485959 255 0 0
7.139335 -8.761791 11.485939 255 0 0
7.142447 -8.737639 11.483397 255 0 0
7.611490 -8.560029 11.486667 255 0 0
7.496872 -8.534812 11.478209 255 0 0
7.472125 -8.533948 11.476894 255 0 0
7.646537 -8.503836 11.482121 255 0 0
7.616762 -8.497878 11.479989 255 0 0
7.567095 -8.518254 11.479818 255 0 0
7.528201 -8.513052 11.477323 255 0 0
6.956788 -8.521301 11.450111 255 0 0
6.950987 -8.520717 11.449761 255 0 0
6.923016 -8.532119 11.449656 255 0 0
7.613347 -8.474407 11.477201 255 0 0
7.586227 -8.492196 11.477852 255 0 0
7.643690 -8.476830 11.478966 255 0 0
7.559590 -8.491173 11.476426 255 0 0
6.963566 -8.500637 11.448138 255 0 0
6.912492 -8.510614 11.446737 255 0 0
6.959582 -8.463345 11.443780 255 0 0
9.032697 -7.797389 11.471519 255 0 0
7.218822 -10.815906 11.719113 255 0 0
7.228104 -10.816541 11.719642 255 0 0
7.325853 -10.747603 11.716761 255 0 0
7.249310 -10.719746 11.709882 255 0 0
7.054514 -10.234577 11.646142 255 0 0
8.195246 -10.219994 11.700676 255 0 0
8.230057 -10.202651 11.700454 255 0 0
6.896569 -9.924070 11.603710 255 0 0
8.788978 -10.213001 11.729126 255 0 0
8.718477 -10.179465 11.721912 255 0 0
8.610556 -10.136455 11.711798 255 0 0
8.616892 -10.107570 11.708886 255 0 0
7.150084 -9.789212 11.601140 255 0 0
6.997643 -9.763382 11.590752 255 0 0
7.215252 -9.560660 11.578839 255 0 0
7.250129 -9.552697 11.579668 255 0 0
7.043235 -9.441175 11.557034 255 0 0
7.021440 -9.407140 11.552163 255 0 0
7.076360 -8.967523 11.505800 255 0 0
7.053954 -8.967980 11.504749 255 0 0
7.108021 -8.947072 11.505076 255 0 0
7.091582 -8.948021 11.504374 255 0 0
7.069537 -8.947830 11.503267 255 0 0
7.067701 -8.947467 11.503136 255 0 0
7.045481 -8.947311 11.502025 255 0 0
7.020976 -8.946691 11.500750 255 0 0
7.121646 -8.927624 11.503576 255 0 0
7.167699 -8.932191 11.506353 255 0 0
7.061064 -8.927163 11.500544 255 0 0
7.084132 -8.927496 11.501716 255 0 0
7.036704 -8.926543 11.499274 255 0 0
7.012155 -8.925691 11.497972 255 0 0
7.077116 -8.907093 11.499093 255 0 0
7.056848 -8.898757 11.497166 255 0 0
7.040688 -8.907277 11.497321 255 0 0
7.186903 -8.879633 11.501433 255 0 0
6.979753 -8.883518 11.491669 255 0 0
7.206721 -8.866978 11.500998 255 0 0
7.207486 -8.864481 11.500756 255 0 0
7.224303 -8.851962 11.500187 255 0 0
7.237371 -8.859102 11.501627 255 0 0
7.182268 -8.862394 11.499282 255 0 0
7.187047 -8.860144 11.499266 255 0 0
7.115860 -8.864883 11.496290 255 0 0
7.139304 -8.850696 11.495861 255 0 0
7.091015 -8.864040 11.494972 255 0 0
7.017323 -8.860105 11.490906 255 0 0
7.024922 -8.855921 11.490812 255 0 0
7.010740 -8.861018 11.490684 255 0 0
7.246355 -8.840634 11.500008 255 0 0
7.209404 -8.843885 11.498552 255 0 0
7.226544 -8.834073 11.498300 255 0 0
7.208479 -8.841830 11.498277 255 0 0
7.184758 -8.843340 11.497278 255 0 0
7.162599 -8.835570 11.495319 255 0 0
7.131213 -8.844446 11.494764 255 0 0
7.153857 -8.829700 11.494233 255 0 0
7.103235 -8.842713 11.493195 255 0 0
7.268823 -8.825136 11.499385 255 0 0
7.162839 -8.808398 11.492298 255 0 0
7.069039 -8.784352 11.484998 255 0 0
7.079602 -8.759957 11.482794 255 0 0
7.397990 -8.627444 11.483679 255 0 0
7.568204 -8.580154 11.486781 255 0 0
6.909471 -8.571234 11.453354 255 0 0
7.586329 -8.559932 11.485417 255 0 0
7.590895 -8.562872 11.485970 255 0 0
7.715789 -8.533295 11.488817 255 0 0
7.691407 -8.526237 11.486829 255 0 0
7.599323 -8.537237 11.483523 255 0 0
7.128424 -8.537883 11.460413 255 0 0
7.123701 -8.540626 11.460485 255 0 0
7.787027 -8.509817 11.489704 255 0 0
7.764750 -8.500834 11.487605 255 0 0
7.739794 -8.517254 11.488209 255 0 0
7.740384 -8.492663 11.485493 255 0 0
7.644732 -8.480146 11.479387 255 0 0
7.832866 -8.462110 11.486637 255 0 0
7.858349 -8.463418 11.488037 255 0 0
7.793387 -8.476134 11.486258 255 0 0
7.739986 -8.467945 11.482716 255 0 0
7.878800 -8.429274 11.485234 255 0 0
7.871421 -8.441401 11.486223 255 0 0
7.784954 -8.428051 11.480476 255 0 0
7.765606 -8.450911 11.482076 255 0 0
7.749125 -8.440670 11.480121 255 0 0
6.972595 -8.441746 11.442011 255 0 0
7.994337 -8.378013 11.485199 255 0 0
7.971298 -8.367878 11.482934 255 0 0
7.988878 -8.352130 11.482042 255 0 0
7.994737 -8.351530 11.482265 255 0 0
7.944352 -8.367451 11.481561 255 0 0
7.963709 -8.369897 11.482786 255 0 0
7.772727 -8.375653 11.474026 255 0 0
7.988286 -8.344920 11.481209 255 0 0
8.013894 -8.335009 11.481363 255 0 0
7.960015 -8.344613 11.479783 255 0 0
7.959836 -8.344654 11.479779 255 0 0
7.988272 -8.326276 11.479127 255 0 0
7.915303 -8.350641 11.478253 255 0 0
7.994627 -8.325010 11.479299 255 0 0
7.958960 -8.318697 11.476838 255 0 0
8.858666 -8.033850 11.489341 255 0 0
6.938130 -11.045025 11.730866 255 0 0
6.965975 -11.043300 11.732045 255 0 0
6.904361 -11.015670 11.725928 255 0 0
6.929231 -11.019527 11.727582 255 0 0
6.910161 -10.999717 11.724432 255 0 0
6.883430 -11.003617 11.723552 255 0 0
7.065289 -10.935274 11.724878 255 0 0
7.014394 -10.900465 11.718487 255 0 0
7.005996 -10.917985 11.720029 255 0 0
7.005996 -10.917985 11.720029 255 0 0
7.117123 -10.920458 11.725775 255 0 0
7.068788 -10.891382 11.720151 255 0 0
7.145250 -10.900425 11.724924 255 0 0
7.068314 -10.871819 11.717944 255 0 0
7.167169 -10.883111 11.724071 255 0 0
7.143308 -10.879072 11.722445 255 0 0
7.175228 -10.840171 11.719676 255 0 0
7.190104 -10.866508 11.723348 255 0 0
7.149052 -10.834877 11.717795 255 0 0
7.132519 -10.836911 11.717210 255 0 0
7.133381 -10.855153 11.719287 255 0 0
7.110888 -10.853765 11.718025 255 0 0
7.116597 -10.857970 11.718776 255 0 0
7.191178 -10.818451 11.718037 255 0 0
7.180288 -10.840569 11.719969 255 0 0
7.172251 -10.819811 11.717256 255 0 0
7.170467 -10.817647 11.716928 255 0 0
7.149996 -10.836822 11.718060 255 0 0
7.146553 -10.814820 11.715435 255 0 0
7.242165 -10.798229 11.718290 255 0 0
7.177542 -10.792697 11.714491 255 0 0
7.188334 -10.816063 11.717629 255 0 0
7.173874 -10.799470 11.715067 255 0 0
7.250871 -10.778022 11.716463 255 0 0
7.265852 -10.758472 11.715018 255 0 0
7.285496 -10.727855 11.712568 255 0 0
7.346030 -10.730528 11.715847 255 0 0
7.319736 -10.723017 11.713715 255 0 0
7.302026 -10.699764 11.710247 255 0 0
7.421122 -10.606913 11.705747 255 0 0
7.011233 -10.535438 11.677590 255 0 0
7.507298 -10.578009 11.706765 255 0 0
9.486811 -10.968175 11.847768 255 0 0
9.532934 -10.955115 11.848580 255 0 0
9.518870 -10.930838 11.845179 255 0 0
9.488900 -10.933596 11.844011 255 0 0
9.466752 -10.938032 11.843415 255 0 0
9.400103 -10.933478 11.839626 255 0 0
7.375468 -10.524111 11.694259 255 0 0
9.476616 -10.908835 11.840643 255 0 0
9.443832 -10.884737 11.836339 255 0 0
9.448468 -10.909225 11.839300 255 0 0
9.407598 -10.884507 11.834529 255 0 0
9.418118 -10.909298 11.837815 255 0 0
9.391774 -10.887212 11.834052 255 0 0
9.462881 -10.850119 11.833413 255 0 0
9.475792 -10.874478 11.836768 255 0 0
9.426735 -10.852453 11.831894 255 0 0
9.363141 -10.858056 11.829389 255 0 0
9.334962 -10.845316 11.826579 255 0 0
7.403674 -10.461978 11.688712 255 0 0
9.443033 -10.815515 11.828573 255 0 0
9.352948 -10.811736 11.823717 255 0 0
7.370833 -10.433249 11.683888 255 0 0
9.393037 -10.799213 11.824293 255 0 0
9.305793 -10.787752 11.818718 255 0 0
9.265903 -10.756474 11.813264 255 0 0
9.267966 -10.780354 11.816031 255 0 0
7.383630 -10.409498 11.681869 255 0 0
9.308341 -10.751873 11.814839 255 0 0
9.274261 -10.732704 11.811023 255 0 0
9.273869 -10.707517 11.808191 255 0 0
9.246317 -10.706433 11.806714 255 0 0
9.262045 -10.683092 11.804883 255 0 0
9.219434 -10.669671 11.801288 255 0 0
7.688580 -10.333093 11.688354 255 0 0
7.713881 -10.300290 11.685939 255 0 0
7.698520 -10.281781 11.683117 255 0 0
9.285686 -10.518867 11.787718 255 0 0
6.895393 -10.109970 11.624400 255 0 0
6.901985 -10.102140 11.623851 255 0 0
9.294257 -10.474832 11.783225 255 0 0
7.782578 -10.225878 11.681016 255 0 0
7.747081 -10.204788 11.676914 255 0 0
7.719795 -10.201982 11.675258 255 0 0
6.886001 -10.076954 11.620253 255 0 0
9.037852 -10.417818 11.764238 255 0 0
9.004990 -10.411961 11.761967 255 0 0
7.745780 -10.174642 11.673486 255 0 0
8.822606 -10.351810 11.746275 255 0 0
8.793944 -10.352539 11.744945 255 0 0
8.794244 -10.352350 11.744939 255 0 0
7.802532 -10.175578 11.676383 255 0 0
7.769152 -10.158439 11.672827 255 0 0
9.359224 -10.407305 11.778888 255 0 0
8.728211 -10.300716 11.735925 255 0 0
8.693401 -10.281693 11.732087 255 0 0
8.656113 -10.281130 11.730187 255 0 0
7.816710 -10.151158 11.674356 255 0 0
9.127594 -10.334721 11.759382 255 0 0
8.708238 -10.256911 11.730052 255 0 0
8.678201 -10.258378 11.728737 255 0 0
8.562670 -10.241568 11.721172 255 0 0
8.232101 -10.183733 11.698442 255 0 0
8.787529 -10.228740 11.730811 255 0 0
8.686107 -10.230117 11.725971 255 0 0
8.627284 -10.225414 11.722551 255 0 0
8.820867 -10.223086 11.731822 255 0 0
8.678907 -10.211193 11.723505 255 0 0
8.606483 -10.209764 11.719780 255 0 0
8.589051 -10.182543 11.715884 255 0 0
8.659216 -10.173881 11.718371 255 0 0
8.526267 -10.137363 11.707750 255 0 0
8.932776 -10.198967 11.734638 255 0 0
8.917783 -10.173511 11.731059 255 0 0
8.820349 -10.160706 11.724833 255 0 0
8.670646 -10.152362 11.716533 255 0 0
8.710050 -10.162198 11.719569 255 0 0
8.629220 -10.131940 11.712214 255 0 0
8.575798 -10.138820 11.710351 255 0 0
9.520901 -10.245067 11.768740 255 0 0
9.331970 -10.238721 11.758730 255 0 0
8.904613 -10.145603 11.727296 255 0 0
8.876648 -10.157292 11.727225 255 0 0
8.823680 -10.139561 11.722638 255 0 0
8.805724 -10.139027 11.721695 255 0 0
8.724532 -10.138501 11.717639 255 0 0
9.524654 -10.215655 11.765641 255 0 0
8.835358 -10.102207 11.719044 255 0 0
7.035779 -9.755905 11.591794 255 0 0
6.964411 -9.747762 11.587372 255 0 0
7.215353 -9.737618 11.598595 255 0 0
7.216446 -9.738944 11.598796 255 0 0
7.222411 -9.761328 11.601588 255 0 0
7.192300 -9.737923 11.597494 255 0 0
6.969773 -9.721802 11.584738 255 0 0
7.227694 -9.716011 11.596790 255 0 0
7.204011 -9.714889 11.595499 255 0 0
7.178417 -9.713505 11.594085 255 0 0
6.952837 -9.694097 11.580812 255 0 0
7.174451 -9.692439 11.591538 255 0 0
6.968414 -9.663245 11.578135 255 0 0
7.063213 -9.643408 11.580589 255 0 0
6.979524 -9.643924 11.576527 255 0 0
6.951379 -9.640945 11.574809 255 0 0
6.929845 -9.634610 11.573042 255 0 0
9.205849 -9.924017 11.717396 255 0 0
9.205849 -9.924017 11.717396 255 0 0
7.117296 -9.642975 11.583204 255 0 0
7.090139 -9.642018 11.581760 255 0 0
7.053267 -9.623271 11.577852 255 0 0
7.025166 -9.622967 11.576435 255 0 0
6.977994 -9.618680 11.573634 255 0 0
7.059299 -9.602979 11.575884 255 0 0
7.027082 -9.604239 11.574438 255 0 0
6.971595 -9.603972 11.571677 255 0 0
9.261367 -9.864547 11.713491 255 0 0
7.200793 -9.591856 11.581610 255 0 0
7.177196 -9.591255 11.580380 255 0 0
7.076585 -9.577207 11.573859 255 0 0
7.049853 -9.579159 11.572761 255 0 0
6.982236 -9.575393 11.569012 255 0 0
6.957375 -9.579891 11.568290 255 0 0
9.299401 -9.847417 11.713452 255 0 0
9.272450 -9.841275 11.711441 255 0 0
9.546847 -9.838126 11.724598 255 0 0
9.537655 -9.859528 11.726535 255 0 0
7.102154 -9.527858 11.569611 255 0 0
6.989424 -9.519690 11.563148 255 0 0
6.926707 -9.520367 11.560136 255 0 0
6.981755 -9.492889 11.559780 255 0 0
9.490598 -9.787979 11.716232 255 0 0
9.492610 -9.788216 11.716357 255 0 0
7.036811 -9.491551 11.562342 255 0 0
6.995454 -9.470004 11.557900 255 0 0
9.346954 -9.749531 11.704868 255 0 0
9.330148 -9.730861 11.701958 255 0 0
9.236937 -9.735896 11.697930 255 0 0
9.147449 -9.716719 11.691384 255 0 0
7.222810 -9.462898 11.568299 255 0 0
7.006559 -9.446475 11.555820 255 0 0
6.956637 -9.453831 11.554183 255 0 0
6.915473 -9.452621 11.552022 255 0 0
6.887555 -9.438809 11.549106 255 0 0
9.347783 -9.709721 11.700466 255 0 0
9.342607 -9.723052 11.701699 255 0 0
9.287499 -9.684011 11.694629 255 0 0
9.161242 -9.693603 11.689484 255 0 0
9.199277 -9.693053 11.691295 255 0 0
7.201227 -9.449172 11.565706 255 0 0
7.082049 -9.432539 11.557982 255 0 0
7.005394 -9.419477 11.552750 255 0 0
6.987836 -9.430438 11.553109 255 0 0
9.565763 -9.704093 11.710569 255 0 0
9.319041 -9.690063 11.696857 255 0 0
9.272137 -9.672419 11.692578 255 0 0
9.244504 -9.672032 11.691175 255 0 0
7.126884 -9.395143 11.556015 255 0 0
7.044711 -9.411301 11.553773 255 0 0
6.992141 -9.408580 11.550881 255 0 0
6.968092 -9.408095 11.549643 255 0 0
6.926577 -9.401396 11.546851 255 0 0
9.349266 -9.649338 11.693800 255 0 0
9.325618 -9.653108 11.693056 255 0 0
6.986928 -9.387069 11.548224 255 0 0
9.548949 -9.656388 11.704418 255 0 0
9.337632 -9.630410 11.691114 255 0 0
9.313805 -9.634057 11.690349 255 0 0
7.058069 -9.359212 11.548616 255 0 0
9.362961 -9.590143 11.687867 255 0 0
9.403255 -9.591929 11.690051 255 0 0
7.068908 -9.330696 11.545968 255 0 0
7.044756 -9.335608 11.545327 255 0 0
9.423510 -9.566373 11.688195 255 0 0
9.334064 -9.579099 11.685212 255 0 0
9.586924 -9.565950 11.696194 255 0 0
7.145486 -8.928710 11.504873 255 0 0
6.983644 -8.881075 11.491588 255 0 0
7.222386 -8.851450 11.500035 255 0 0
7.066195 -8.862052 11.493529 255 0 0
7.131642 -8.821185 11.492190 255 0 0
9.279469 -8.767562 11.591948 255 0 0
9.660788 -8.765520 11.610493 255 0 0
9.277007 -8.743478 11.589140 255 0 0
9.249733 -8.744574 11.587919 255 0 0
9.259522 -8.717919 11.585425 255 0 0
9.180723 -8.650376 11.574007 255 0 0
7.616350 -8.569859 11.488003 255 0 0
7.667293 -8.543539 11.487573 255 0 0
7.632374 -8.542491 11.485737 255 0 0
7.615309 -8.545571 11.485241 255 0 0
7.764208 -8.526009 11.490388 255 0 0
7.740162 -8.542400 11.491034 255 0 0
7.393487 -8.505960 11.469898 255 0 0
7.777505 -8.498837 11.488009 255 0 0
7.713274 -8.509253 11.486010 255 0 0
7.690603 -8.501985 11.484082 255 0 0
9.080668 -8.534459 11.556144 255 0 0
9.036355 -8.531509 11.553633 255 0 0
9.055103 -8.534455 11.554885 255 0 0
7.766107 -8.475954 11.484895 255 0 0
7.714626 -8.484897 11.483358 255 0 0
7.688879 -8.477715 11.481289 255 0 0
7.662682 -8.485430 11.480860 255 0 0
7.594103 -8.469421 11.475698 255 0 0
9.303609 -8.522467 11.565782 255 0 0
9.068713 -8.511336 11.552974 255 0 0
9.064438 -8.531646 11.555031 255 0 0
9.052080 -8.508493 11.551839 255 0 0
7.808091 -8.453413 11.484446 255 0 0
7.713407 -8.459777 11.480494 255 0 0
9.031995 -8.484763 11.548202 255 0 0
8.893164 -8.490959 11.542058 255 0 0
7.832276 -8.436688 11.483769 255 0 0
7.807749 -8.428003 11.481593 255 0 0
7.885419 -8.412646 11.483703 255 0 0
7.858569 -8.412079 11.482318 255 0 0
7.856087 -8.419908 11.483069 255 0 0
7.967771 -8.395474 11.485841 255 0 0
7.981468 -8.399459 11.486960 255 0 0
7.937421 -8.387649 11.483473 255 0 0
7.955015 -8.390932 11.484706 255 0 0
7.936069 -8.397365 11.484491 255 0 0
7.929348 -8.390233 11.483363 255 0 0
7.901461 -8.389855 11.481949 255 0 0
7.899741 -8.389779 11.481856 255 0 0
7.911322 -8.387143 11.482132 255 0 0
7.873806 -8.389339 11.480530 255 0 0
7.849922 -8.389283 11.479348 255 0 0
7.791562 -8.387271 11.476251 255 0 0
7.916775 -8.367094 11.480163 255 0 0
7.926665 -8.364390 11.480349 255 0 0
7.890738 -8.366483 11.478812 255 0 0
7.861798 -8.366023 11.477336 255 0 0
8.022527 -8.335417 11.481833 255 0 0
7.932029 -8.344284 11.478368 255 0 0
7.942978 -8.341554 11.478602 255 0 0
7.940692 -8.335166 11.477777 255 0 0
7.988103 -8.319024 11.478310 255 0 0
7.975217 -8.321553 11.477958 255 0 0
7.947078 -8.321363 11.476550 255 0 0
8.646950 -8.307896 11.509504 255 0 0
8.010030 -8.213336 11.467593 255 0 0
8.009318 -8.186993 11.464618 255 0 0
7.984426 -8.204774 11.465377 255 0 0
7.957671 -8.198766 11.463389 255 0 0
7.950868 -8.183740 11.461377 255 0 0
7.999376 -8.174674 11.462753 255 0 0
7.972333 -8.172740 11.461206 255 0 0
7.963775 -8.151419 11.458405 255 0 0
7.941068 -8.151193 11.457261 255 0 0
8.972773 -8.142864 11.507126 255 0 0
8.771344 -8.032179 11.484856 255 0 0
9.147865 -7.939938 11.493097 255 0 0
9.132918 -7.940670 11.492443 255 0 0
9.127840 -7.935291 11.491593 255 0 0
9.144870 -7.914597 11.490122 255 0 0
9.332911 -7.766911 11.482896 255 0 0
9.328477 -7.744048 11.480126 255 0 0
6.986734 -11.043335 11.733069 255 0 0
7.046000 -10.902507 11.720270 255 0 0
9.506732 -10.989614 11.851140 255 0 0
7.394022 -10.523453 11.695098 255 0 0
9.382957 -10.887171 11.833614 255 0 0
9.345051 -10.893456 11.832449 255 0 0
9.324815 -10.859360 11.827647 255 0 0
9.493824 -10.845236 11.834392 255 0 0
9.321023 -10.813303 11.822320 255 0 0
9.352770 -10.842695 11.827163 255 0 0
9.459575 -10.806214 11.828351 255 0 0
9.449464 -10.781079 11.825047 255 0 0
9.215342 -10.762527 11.811450 255 0 0
9.253263 -10.766540 11.813765 255 0 0
9.205671 -10.701744 11.804189 255 0 0
9.246909 -10.656934 11.801219 255 0 0
9.187469 -10.629241 11.795201 255 0 0
9.432742 -10.634395 11.807853 255 0 0
9.225293 -10.580552 11.791630 255 0 0
7.500789 -10.278962 11.673066 255 0 0
7.466592 -10.280537 11.671559 255 0 0
9.442128 -10.614674 11.806113 255 0 0
9.414274 -10.606874 11.803871 255 0 0
9.432208 -10.552342 11.798668 255 0 0
9.435596 -10.578165 11.801717 255 0 0
9.315880 -10.553786 11.793101 255 0 0
9.258817 -10.532731 11.787942 255 0 0
9.309798 -10.523048 11.789371 255 0 0
9.445977 -10.501279 11.793647 255 0 0
9.375809 -10.487432 11.788647 255 0 0
9.334452 -10.495168 11.787474 255 0 0
9.307858 -10.497031 11.786373 255 0 0
9.425293 -10.480065 11.790260 255 0 0
9.319853 -10.471375 11.784101 255 0 0
8.974594 -10.410834 11.760345 255 0 0
8.774849 -10.330673 11.741564 255 0 0
8.688032 -10.335584 11.737838 255 0 0
8.780093 -10.328733 11.741605 255 0 0
8.779977 -10.328043 11.741523 255 0 0
8.766210 -10.305464 11.738325 255 0 0
9.574483 -10.415443 11.790393 255 0 0
9.553423 -10.417847 11.789624 255 0 0
7.386528 -10.057217 11.642693 255 0 0
9.581496 -10.393929 11.788337 255 0 0
9.563005 -10.393534 11.787382 255 0 0
8.693582 -10.233382 11.726704 255 0 0
8.670934 -10.253776 11.727866 255 0 0
8.656341 -10.228560 11.724333 255 0 0
8.656585 -10.227677 11.724246 255 0 0
9.605551 -10.367454 11.786567 255 0 0
9.608391 -10.369349 11.786918 255 0 0
9.607976 -10.370317 11.787006 255 0 0
9.581226 -10.368711 11.785510 255 0 0
9.558685 -10.366852 11.784193 255 0 0
9.486180 -10.341898 11.777838 255 0 0
8.723268 -10.230483 11.727842 255 0 0
9.572453 -10.338228 11.781675 255 0 0
9.560588 -10.312722 11.778245 255 0 0
9.497911 -10.309797 11.774832 255 0 0
9.503330 -10.327101 11.777031 255 0 0
9.449417 -10.311420 11.772626 255 0 0
8.965155 -10.239645 11.740772 255 0 0
8.625888 -10.177386 11.717121 255 0 0
8.586453 -10.159817 11.713220 255 0 0
7.415829 -9.985908 11.636176 255 0 0
7.360779 -9.986948 11.633582 255 0 0
9.495517 -10.286440 11.772107 255 0 0
9.463181 -10.275126 11.769253 255 0 0
9.546075 -10.256228 11.771224 255 0 0
9.312895 -10.233348 11.757191 255 0 0
9.254457 -10.212012 11.751932 255 0 0
9.257926 -10.188354 11.749463 255 0 0
9.326915 -10.162043 11.749923 255 0 0
9.278811 -10.161796 11.747527 255 0 0
9.523409 -10.163144 11.759720 255 0 0
9.306602 -10.135727 11.745985 255 0 0
9.271749 -10.137758 11.744496 255 0 0
9.282953 -10.111605 11.742129 255 0 0
9.318536 -10.113624 11.744105 255 0 0
7.201337 -9.791942 11.603967 255 0 0
7.098035 -9.775820 11.597082 255 0 0
9.565505 -10.101573 11.754920 255 0 0
7.203179 -9.760675 11.600568 255 0 0
7.166439 -9.739369 11.596382 255 0 0
6.989796 -9.719810 11.585503 255 0 0
9.615560 -10.091980 11.756313 255 0 0
8.602066 -9.940944 11.689559 255 0 0
7.004944 -9.691442 11.583081 255 0 0
6.979537 -9.690685 11.581747 255 0 0
8.725421 -9.930343 11.694449 255 0 0
8.642049 -9.910900 11.688174 255 0 0
7.148986 -9.690495 11.590068 255 0 0
7.112945 -9.693557 11.588634 255 0 0
6.992083 -9.668806 11.579922 255 0 0
9.468320 -9.983555 11.736963 255 0 0
9.441339 -9.984965 11.735793 255 0 0
8.767789 -9.907111 11.693942 255 0 0
8.743651 -9.910917 11.693178 255 0 0
8.702990 -9.886472 11.688449 255 0 0
8.715955 -9.910611 11.691780 255 0 0
7.072701 -9.670946 11.584131 255 0 0
9.485016 -9.962289 11.735412 255 0 0
9.454780 -9.961462 11.733831 255 0 0
9.197966 -9.914212 11.715913 255 0 0
8.743148 -9.863011 11.687808 255 0 0
8.757441 -9.888403 11.691344 255 0 0
8.714975 -9.864419 11.686578 255 0 0
7.028907 -9.641837 11.578725 255 0 0
7.006434 -9.641048 11.577531 255 0 0
9.229938 -9.906076 11.716579 255 0 0
8.759353 -9.838263 11.685843 255 0 0
8.771839 -9.862328 11.689143 255 0 0
7.099914 -9.622587 11.580073 255 0 0
6.999907 -9.598835 11.572498 255 0 0
8.880207 -9.830549 11.690931 255 0 0
8.856997 -9.834695 11.690252 255 0 0
8.860404 -9.841606 11.691191 255 0 0
8.828291 -9.831156 11.688444 255 0 0
8.840350 -9.807909 11.686443 255 0 0
7.265549 -9.573652 11.582766 255 0 0
9.672488 -9.891592 11.736751 255 0 0
7.227915 -9.539007 11.577045 255 0 0
7.025779 -9.541881 11.567415 255 0 0
9.490069 -9.838331 11.721826 255 0 0
9.133545 -9.788171 11.698674 255 0 0
9.120366 -9.782430 11.697385 255 0 0
7.218226 -9.522241 11.574698 255 0 0
7.018833 -9.516949 11.564290 255 0 0
6.927344 -9.493955 11.557220 255 0 0
9.517599 -9.787618 11.717521 255 0 0
9.557794 -9.805940 11.721545 255 0 0
9.335597 -9.767658 11.706332 255 0 0
9.165666 -9.769339 11.698153 255 0 0
7.246112 -9.510070 11.574712 255 0 0
7.066858 -9.489979 11.563644 255 0 0
7.011741 -9.492715 11.561236 255 0 0
7.032663 -9.493857 11.562393 255 0 0
9.557724 -9.786366 11.719357 255 0 0
9.346582 -9.739543 11.703736 255 0 0
7.052477 -9.466969 11.560369 255 0 0
7.027174 -9.465509 11.558960 255 0 0
7.068928 -9.442398 11.558435 255 0 0
7.107087 -9.400546 11.555644 255 0 0
6.984917 -9.385521 11.547952 255 0 0
6.959843 -9.385013 11.546660 255 0 0
6.935201 -9.382828 11.545204 255 0 0
9.269690 -9.646868 11.689606 255 0 0
6.985646 -9.361860 11.545346 255 0 0
9.623775 -9.492834 11.689847 255 0 0
9.622672 -9.468137 11.687037 255 0 0
6.984001 -8.859426 11.489188 255 0 0
7.001445 -8.839902 11.487868 255 0 0
9.492406 -8.832200 11.609646 255 0 0
9.519559 -8.830173 11.610758 255 0 0
9.360961 -8.837632 11.603781 255 0 0
9.483872 -8.807513 11.606471 255 0 0
9.308714 -8.790494 11.595947 255 0 0
9.344170 -8.814469 11.600369 255 0 0
7.558428 -8.560153 11.484068 255 0 0
9.162819 -8.614534 11.569126 255 0 0
7.658413 -8.507291 11.483090 255 0 0
7.588133 -8.514690 11.480455 255 0 0
9.115280 -8.573456 11.562201 255 0 0
9.091753 -8.557664 11.559280 255 0 0
9.095628 -8.557438 11.559445 255 0 0
7.642003 -8.451646 11.476071 255 0 0
9.281793 -8.521987 11.564654 255 0 0
7.748619 -8.417243 11.477482 255 0 0
7.721963 -8.418842 11.476347 255 0 0
8.957221 -8.463895 11.542190 255 0 0
7.913119 -8.413171 11.485126 255 0 0
7.831810 -8.411233 11.480906 255 0 0
9.259041 -8.429896 11.553255 255 0 0
8.929042 -8.395987 11.533224 255 0 0
7.851422 -8.342849 11.474239 255 0 0
9.257400 -8.383290 11.547973 255 0 0
7.850251 -8.316167 11.471204 255 0 0
9.221416 -8.357556 11.543329 255 0 0
8.876730 -8.347087 11.525190 255 0 0
8.864614 -8.297182 11.519025 255 0 0
9.100719 -8.213714 11.521333 255 0 0
9.046779 -8.001638 11.495007 255 0 0
9.178867 -7.940672 11.494705 255 0 0
9.282269 -7.833796 11.487868 255 0 0
9.126990 -7.818594 11.478526 255 0 0
9.333839 -7.795001 11.486077 255 0 0
9.150561 -7.793777 11.476917 255 0 0
9.139258 -7.773504 11.474098 255 0 0
9.125735 -7.794847 11.475814 255 0 0
9.099753 -7.795369 11.474593 255 0 0
6.883352 -10.988290 11.721837 255 0 0
9.539872 -10.986266 11.852400 255 0 0
9.383389 -10.885790 11.833481 255 0 0
9.457203 -10.857798 11.833991 255 0 0
9.305640 -10.850133 11.825673 255 0 0
9.288152 -10.818929 11.821330 255 0 0
9.233675 -10.791297 11.815563 255 0 0
9.337419 -10.787851 11.820287 255 0 0
9.233635 -10.739716 11.809804 255 0 0
9.159759 -10.692952 11.800948 255 0 0
7.147830 -10.380451 11.667018 255 0 0
9.172613 -10.664648 11.798422 255 0 0
9.142913 -10.664734 11.796969 255 0 0
9.275472 -10.656684 11.802597 255 0 0
9.160679 -10.637016 11.794750 255 0 0
9.178106 -10.608864 11.792466 255 0 0
9.145402 -10.586646 11.788377 255 0 0
7.641963 -10.361443 11.689223 255 0 0
9.384412 -10.607037 11.802419 255 0 0
9.326707 -10.577536 11.796286 255 0 0
7.661500 -10.334301 11.687156 255 0 0
9.402860 -10.584149 11.800773 255 0 0
9.377227 -10.579001 11.798937 255 0 0
9.278764 -10.570144 11.793100 255 0 0
9.259911 -10.543140 11.789158 255 0 0
7.684186 -10.309582 11.685513 255 0 0
7.648760 -10.314599 11.684330 255 0 0
7.082322 -10.234998 11.647557 255 0 0
6.990045 -10.239708 11.643540 255 0 0
9.415243 -10.558947 11.798570 255 0 0
9.371563 -10.538988 11.794191 255 0 0
9.371563 -10.538988 11.794191 255 0 0
9.286268 -10.537893 11.789871 255 0 0
7.669916 -10.283415 11.681890 255 0 0
9.361752 -10.502018 11.789583 255 0 0
9.390122 -10.513851 11.792300 255 0 0
9.256997 -10.503055 11.784541 255 0 0
9.405317 -10.488154 11.790180 255 0 0
9.359149 -10.476695 11.786628 255 0 0
8.958277 -10.420264 11.760594 255 0 0
8.958899 -10.433249 11.762073 255 0 0
8.959207 -10.433476 11.762114 255 0 0
8.609577 -10.395462 11.740659 255 0 0
8.557108 -10.372601 11.735522 255 0 0
7.661717 -10.224777 11.674942 255 0 0
9.418419 -10.463370 11.788059 255 0 0
9.356799 -10.450738 11.783615 255 0 0
9.313311 -10.449339 11.781318 255 0 0
9.112411 -10.416780 11.767794 255 0 0
9.078350 -10.424700 11.767000 255 0 0
9.071479 -10.399166 11.763812 255 0 0
8.778841 -10.379035 11.747158 255 0 0
8.760988 -10.357935 11.743924 255 0 0
8.595389 -10.365491 11.736615 255 0 0
7.663682 -10.181770 11.670239 255 0 0
7.682945 -10.205935 11.673884 255 0 0
7.648054 -10.210083 11.672629 255 0 0
9.449869 -10.434168 11.786347 255 0 0
9.432053 -10.438986 11.786008 255 0 0
9.374652 -10.430595 11.782246 255 0 0
9.316415 -10.425655 11.778828 255 0 0
9.347743 -10.430067 11.780863 255 0 0
9.131371 -10.388368 11.765555 255 0 0
9.023266 -10.389473 11.760357 255 0 0
8.744750 -10.331803 11.740209 255 0 0
8.717971 -10.333690 11.739100 255 0 0
7.618132 -10.150197 11.664473 255 0 0
9.456961 -10.411371 11.784153 255 0 0
9.138242 -10.359578 11.762681 255 0 0
9.113524 -10.353497 11.760785 255 0 0
8.808318 -10.328620 11.742983 255 0 0
8.766232 -10.304979 11.738272 255 0 0
8.759236 -10.309032 11.738379 255 0 0
8.757597 -10.306373 11.738002 255 0 0
8.703341 -10.311606 11.735916 255 0 0
7.787960 -10.154011 11.673259 255 0 0
9.346226 -10.377095 11.774875 255 0 0
9.171855 -10.331550 11.761208 255 0 0
8.754412 -10.282015 11.735126 255 0 0
8.754424 -10.281422 11.735061 255 0 0
8.641098 -10.255011 11.726534 255 0 0
8.641862 -10.252339 11.726274 255 0 0
7.492599 -10.107174 11.653490 255 0 0
7.492599 -10.107174 11.653490 255 0 0
7.437427 -10.104016 11.650422 255 0 0
9.190050 -10.306490 11.759307 255 0 0
9.157351 -10.309520 11.758034 255 0 0
9.119102 -10.310625 11.756275 255 0 0
8.741434 -10.257526 11.731754 255 0 0
7.557587 -10.073833 11.652968 255 0 0
7.449530 -10.081970 11.648558 255 0 0
9.175536 -10.285692 11.756270 255 0 0
9.138757 -10.282530 11.754107 255 0 0
8.762184 -10.226895 11.729358 255 0 0
8.638558 -10.201797 11.720469 255 0 0
8.573833 -10.210863 11.718296 255 0 0
9.149760 -10.256870 11.751784 255 0 0
8.821884 -10.197439 11.729010 255 0 0
9.521583 -10.270586 11.771621 255 0 0
9.241089 -10.233350 11.753655 255 0 0
8.879323 -10.184735 11.730419 255 0 0
8.838418 -10.191299 11.729138 255 0 0
8.352800 -10.108137 11.695948 255 0 0
8.304531 -10.111593 11.693957 255 0 0
7.211772 -9.945136 11.621580 255 0 0
7.184134 -9.943995 11.620091 255 0 0
7.142326 -9.938516 11.617422 255 0 0
7.118420 -9.934901 11.615841 255 0 0
9.492937 -10.247962 11.767686 255 0 0
8.841580 -10.160725 11.725882 255 0 0
8.355167 -10.077764 11.692675 255 0 0
7.173110 -9.917860 11.616632 255 0 0
7.152630 -9.913992 11.615191 255 0 0
7.124654 -9.912973 11.613701 255 0 0
7.045905 -9.914576 11.610003 255 0 0
8.362868 -10.047397 11.689664 255 0 0
7.185380 -9.893720 11.614542 255 0 0
7.159178 -9.892146 11.613076 255 0 0
7.133600 -9.889492 11.611521 255 0 0
8.354423 -10.027764 11.687057 255 0 0
7.081872 -9.868602 11.606642 255 0 0
7.055012 -9.863204 11.604717 255 0 0
8.462490 -10.010652 11.690468 255 0 0
8.434367 -10.009954 11.689005 255 0 0
8.407398 -10.011233 11.687819 255 0 0
7.756517 -9.929510 11.646654 255 0 0
7.229784 -9.844637 11.611249 255 0 0
7.229784 -9.844637 11.611249 255 0 0
7.229784 -9.844637 11.611249 255 0 0
9.586373 -10.131628 11.759301 255 0 0
8.547176 -9.989967 11.692328 255 0 0
8.499517 -9.987342 11.689690 255 0 0
8.496767 -9.988080 11.689636 255 0 0
8.487907 -10.007821 11.691403 255 0 0
8.359138 -9.973742 11.681260 255 0 0
7.116478 -9.807752 11.601554 255 0 0
9.415234 -10.078820 11.744983 255 0 0
9.389771 -10.080323 11.743896 255 0 0
9.365817 -10.081128 11.742806 255 0 0
9.334538 -10.084388 11.741631 255 0 0
8.572869 -9.977523 11.692204 255 0 0
8.546628 -9.964770 11.689489 255 0 0
8.515580 -9.967435 11.688258 255 0 0
8.515647 -9.967033 11.688217 255 0 0
8.489074 -9.968663 11.687090 255 0 0
8.501419 -9.972131 11.688086 255 0 0
8.466167 -9.970767 11.686197 255 0 0
8.472400 -9.967032 11.686088 255 0 0
9.427898 -10.057066 11.743178 255 0 0
9.426647 -10.055139 11.742901 255 0 0
9.347614 -10.061134 11.739679 255 0 0
9.375923 -10.057624 11.740682 255 0 0
9.321752 -10.059226 11.738193 255 0 0
8.558298 -9.944115 11.687759 255 0 0
8.530987 -9.939908 11.685945 255 0 0
8.530043 -9.944205 11.686378 255 0 0
8.505978 -9.949818 11.685820 255 0 0
8.488596 -9.951690 11.685173 255 0 0
8.446116 -9.951900 11.683105 255 0 0
7.227849 -9.761686 11.601896 255 0 0
7.240156 -9.765688 11.602949 255 0 0
7.051743 -9.768308 11.593966 255 0 0
9.390874 -10.034374 11.738822 255 0 0
9.386536 -10.033714 11.738535 255 0 0
9.413461 -10.033744 11.739863 255 0 0
9.360617 -10.035899 11.737503 255 0 0
9.374466 -10.013212 11.735653 255 0 0
8.589480 -9.922856 11.686921 255 0 0
8.581123 -9.936852 11.688072 255 0 0
8.572105 -9.917715 11.685492 255 0 0
8.543787 -9.918836 11.684222 255 0 0
8.545753 -9.919714 11.684418 255 0 0
8.515955 -9.919888 11.682970 255 0 0
7.240288 -9.740050 11.600094 255 0 0
7.238821 -9.738807 11.599883 255 0 0
7.060858 -9.739330 11.591180 255 0 0
9.426124 -10.008245 11.737642 255 0 0
9.399467 -10.009758 11.736499 255 0 0
9.374338 -10.010458 11.735338 255 0 0
8.687389 -9.912918 11.690633 255 0 0
8.585762 -9.892001 11.683294 255 0 0
8.595413 -9.896282 11.684247 255 0 0
8.608162 -9.919878 11.687509 255 0 0
8.559278 -9.897242 11.682575 255 0 0
8.532366 -9.898830 11.681428 255 0 0
8.531980 -9.899929 11.681532 255 0 0
8.508615 -9.907183 11.681190 255 0 0
8.498266 -9.907276 11.680692 255 0 0
8.479675 -9.886176 11.677421 255 0 0
7.242457 -9.718980 11.597848 255 0 0
9.413513 -9.984998 11.734426 255 0 0
9.425643 -9.963395 11.732613 255 0 0
8.625506 -9.866993 11.682460 255 0 0
8.637689 -9.890735 11.685709 255 0 0
8.611532 -9.891416 11.684498 255 0 0
8.598370 -9.868431 11.681284 255 0 0
8.570571 -9.874064 11.680544 255 0 0
7.099322 -9.670137 11.585350 255 0 0
9.475232 -9.963687 11.735086 255 0 0
9.453627 -9.952523 11.732776 255 0 0
9.464354 -9.939586 11.731860 255 0 0
8.685354 -9.862995 11.684960 255 0 0
8.654768 -9.864740 11.683649 255 0 0
8.643522 -9.842212 11.680580 255 0 0
8.615183 -9.841431 11.679098 255 0 0
8.630791 -9.869935 11.683048 255 0 0
7.165288 -9.660235 11.587493 255 0 0
7.136963 -9.663310 11.586442 255 0 0
9.270453 -9.894704 11.717304 255 0 0
8.730388 -9.838830 11.684481 255 0 0
8.701102 -9.836671 11.682797 255 0 0
8.671926 -9.837952 11.681504 255 0 0
9.523736 -9.911396 11.731638 255 0 0
9.210785 -9.867041 11.711279 255 0 0
8.798697 -9.829549 11.686807 255 0 0
9.459037 -9.855260 11.722187 255 0 0
9.077137 -9.819757 11.699423 255 0 0
8.904852 -9.817032 11.690637 255 0 0
8.813252 -9.807528 11.685066 255 0 0
6.912167 -9.569714 11.564927 255 0 0
6.895300 -9.541307 11.560927 255 0 0
9.519110 -9.837616 11.723175 255 0 0
9.458470 -9.834775 11.719873 255 0 0
9.259289 -9.816430 11.708019 255 0 0
9.151844 -9.799576 11.700848 255 0 0
9.096799 -9.785888 11.696610 255 0 0
8.733495 -9.768206 11.676751 255 0 0
7.060051 -9.551550 11.570181 255 0 0
6.927645 -9.543896 11.562809 255 0 0
9.503107 -9.810965 11.719414 255 0 0
9.530950 -9.808874 11.720551 255 0 0
9.182786 -9.762496 11.698234 255 0 0
9.112067 -9.761086 11.694594 255 0 0
7.053592 -9.512794 11.565537 255 0 0
9.547200 -9.785315 11.718721 255 0 0
9.519485 -9.786424 11.717481 255 0 0
9.184690 -9.737011 11.695482 255 0 0
9.208864 -9.739147 11.696912 255 0 0
8.985061 -9.742250 11.686239 255 0 0
9.546829 -9.762548 11.716162 255 0 0
9.513739 -9.760402 11.714293 255 0 0
9.223860 -9.711186 11.694529 255 0 0
8.880988 -9.687431 11.674996 255 0 0
6.967753 -9.459423 11.555354 255 0 0
9.500392 -9.724368 11.709614 255 0 0
9.475052 -9.726277 11.708580 255 0 0
6.976696 -9.428584 11.552354 255 0 0
6.934470 -9.427794 11.550185 255 0 0
9.490901 -9.701500 11.706595 255 0 0
9.269690 -9.646868 11.689606 255 0 0
7.037018 -9.388761 11.550879 255 0 0
7.006127 -9.387706 11.549240 255 0 0
9.562756 -9.633337 11.702525 255 0 0
7.002087 -9.348319 11.544644 255 0 0
6.981097 -9.332049 11.541797 255 0 0
9.576375 -9.603368 11.699850 255 0 0
9.437757 -9.543347 11.686327 255 0 0
7.012403 -8.807361 11.484776 255 0 0
7.128505 -8.786078 11.488117 255 0 0
7.022131 -8.783934 11.482640 255 0 0
7.075545 -8.758865 11.482472 255 0 0
7.052813 -8.765200 11.482059 255 0 0
7.112504 -8.614346 11.468163 255 0 0
7.128768 -8.615303 11.469069 255 0 0
7.127561 -8.590210 11.466209 255 0 0
7.098557 -8.587490 11.464478 255 0 0
9.458753 -8.735109 11.597153 255 0 0
7.673798 -8.599977 11.494193 255 0 0
7.125469 -8.563022 11.463073 255 0 0
9.450066 -8.708452 11.593750 255 0 0
9.233117 -8.695014 11.581570 255 0 0
7.732272 -8.567449 11.493442 255 0 0
7.571816 -8.537161 11.482161 255 0 0
7.487383 -8.512513 11.475252 255 0 0
9.149107 -8.590978 11.565822 255 0 0
9.269750 -8.497848 11.561367 255 0 0
7.824142 -8.388497 11.477991 255 0 0
7.838808 -8.365901 11.476192 255 0 0
7.819298 -8.341383 11.472495 255 0 0
7.754568 -8.299932 11.464681 255 0 0
7.734257 -8.301042 11.463804 255 0 0
7.707617 -8.300892 11.462477 255 0 0
8.819692 -8.281747 11.515090 255 0 0
8.808005 -8.257885 11.511851 255 0 0
8.784460 -8.258821 11.510797 255 0 0
8.026245 -8.195114 11.466358 255 0 0
7.983725 -8.197588 11.464540 255 0 0
7.925061 -8.198179 11.461718 255 0 0
8.035951 -8.150699 11.461879 255 0 0
8.011771 -8.149774 11.460586 255 0 0
8.023497 -8.125854 11.458492 255 0 0
9.365256 -7.847373 11.493469 255 0 0
9.385603 -7.821043 11.491531 255 0 0
9.277000 -7.807618 11.484687 255 0 0
9.424753 -7.769384 11.487694 255 0 0
9.398163 -7.798044 11.489583 255 0 0
9.384271 -7.773806 11.486196 255 0 0
9.373322 -7.794753 11.487993 255 0 0
7.071923 -7.671164 11.360895 255 0 0
9.463964 -7.745095 11.486913 255 0 0
9.434752 -7.745903 11.485566 255 0 0
9.416530 -7.750785 11.485214 255 0 0
7.055631 -7.657433 11.358562 255 0 0
9.443101 -7.719242 11.483000 255 0 0
9.372365 -7.729756 11.480692 255 0 0
9.491700 -7.699203 11.483157 255 0 0
6.662428 -7.488086 11.320302 255 0 0
6.676666 -7.465021 11.318428 255 0 0
6.675041 -7.417948 11.313093 255 0 0
6.913530 -7.408699 11.323803 255 0 0
6.898032 -11.039594 11.728286 255 0 0
7.046846 -11.083179 11.740477 255 0 0
7.049682 -11.079884 11.740248 255 0 0
7.009373 -11.053291 11.735296 255 0 0
6.990452 -11.047039 11.733667 255 0 0
6.989855 -11.051140 11.734095 255 0 0
6.957997 -11.060856 11.733612 255 0 0
7.044846 -11.048508 11.736509 255 0 0
7.030079 -11.056481 11.736671 255 0 0
7.031426 -11.054354 11.736501 255 0 0
7.012248 -11.049435 11.735007 255 0 0
6.995211 -11.023055 11.731224 255 0 0
6.988201 -11.038103 11.732558 255 0 0
6.972874 -11.020006 11.729784 255 0 0
6.928574 -10.995226 11.724837 255 0 0
7.087712 -10.719206 11.701865 255 0 0
9.560637 -11.020460 11.857237 255 0 0
7.138036 -10.696597 11.701819 255 0 0
7.104848 -10.690057 11.699456 255 0 0
7.072312 -10.689282 11.697768 255 0 0
7.108128 -10.627041 11.692584 255 0 0
9.323710 -10.876536 11.829511 255 0 0
7.104144 -10.575233 11.686605 255 0 0
7.079170 -10.572456 11.685067 255 0 0
7.000166 -10.568357 11.680719 255 0 0
9.266328 -10.838589 11.822449 255 0 0
7.063078 -10.549198 11.681679 255 0 0
7.034095 -10.549828 11.680322 255 0 0
7.263140 -10.522544 11.688554 255 0 0
9.321395 -10.719695 11.811891 255 0 0
9.097187 -10.727983 11.801777 255 0 0
9.078417 -10.701325 11.797878 255 0 0
9.016227 -10.677319 11.792137 255 0 0
