ply
format ascii 1.0
element vertex 1710
property float x
property float y
property float z
end_header
3.972900 8.340265 -5.021608
3.980069 8.400326 -5.017479
6.104936 6.003512 -4.583965
6.052125 6.015577 -4.596598
5.983950 6.029254 -4.612981
5.896459 6.024209 -4.634891
5.551639 5.994698 -4.721617
6.184985 6.708025 -4.536528
6.185885 6.710853 -4.536194
5.647325 6.477848 -4.678964
5.646935 6.473085 -4.679247
5.646935 6.473085 -4.679247
5.598361 6.853784 -4.676403
5.629771 6.864081 -4.668204
5.627342 6.853340 -4.669229
5.628973 6.855030 -4.668757
5.609695 6.880547 -4.672542
5.614625 6.885003 -4.671144
5.601033 6.901545 -4.673870
5.625866 7.085839 -4.660495
5.992637 7.569837 -4.550535
4.841225 6.796859 -4.866523
4.835560 6.814825 -4.867226
4.711738 6.865047 -4.895988
4.742358 6.894437 -4.887239
4.753677 7.835902 -4.847587
4.590848 7.812462 -4.888912
4.545763 7.794548 -4.900802
4.377766 7.598090 -4.950181
4.377766 7.598090 -4.950181
4.532661 7.798018 -4.903917
4.692716 8.051889 -4.854263
4.414614 7.726035 -4.936029
4.686058 8.215489 -4.849512
4.208128 7.708543 -4.987956
4.660033 8.301620 -4.852600
4.646475 8.396751 -4.852242
4.556144 8.342590 -4.876778
3.956051 7.794295 -5.047157
3.983861 8.385741 -5.017109
3.901155 8.339612 -5.039439
6.235284 5.967756 -4.553016
6.178584 5.972083 -4.566917
6.253576 6.002952 -4.547100
6.281972 5.999699 -4.540179
6.150285 5.978548 -4.573688
6.110579 5.989085 -4.583129
6.127038 5.998861 -4.578662
6.008072 5.967349 -4.609418
6.137396 6.014268 -4.575488
5.939220 5.970849 -4.626368
5.993472 5.991204 -4.612108
6.017223 5.996463 -4.606007
6.044442 6.000507 -4.599094
6.044442 6.000507 -4.599094
6.044442 6.000507 -4.599094
5.923496 5.977790 -4.629998
5.955629 6.001335 -4.621102
5.981983 6.001664 -4.614549
6.028972 6.020134 -4.602166
6.051271 6.031627 -4.596182
6.097832 6.043851 -4.584149
5.879870 5.980335 -4.640725
5.912271 5.999336 -4.631940
5.912271 5.999336 -4.631940
5.911736 6.003996 -4.631891
5.859942 5.999876 -4.644905
5.891035 5.992258 -4.637487
5.844963 6.024679 -4.647652
5.826502 6.028896 -4.652068
5.654077 5.967665 -4.697254
5.685208 5.990158 -4.688648
5.802560 6.024579 -4.658179
5.535557 5.964518 -4.726789
5.550061 5.967391 -4.723077
5.656807 5.994723 -4.695518
5.667207 5.988337 -4.693186
5.674628 5.997188 -4.690999
5.524761 5.969428 -4.729277
5.434648 5.998056 -4.750519
5.586751 6.098064 -4.708858
5.586751 6.098064 -4.708858
5.594310 6.120128 -4.706120
5.649397 6.256479 -4.687112
5.088409 5.968075 -4.837616
5.106720 5.986623 -4.832346
5.090055 5.995787 -4.836123
6.185661 6.727057 -4.535615
5.669235 6.415807 -4.675954
5.665430 6.419340 -4.676761
5.665051 6.440200 -4.676038
4.705698 5.975303 -4.932308
5.871944 6.694373 -4.614748
5.862953 6.684762 -4.617355
5.862970 6.691190 -4.617100
5.779056 6.786259 -4.634203
5.614536 6.834324 -4.673150
5.290408 6.680147 -4.759621
5.305352 6.679151 -4.755951
5.573985 6.857325 -4.682313
5.584158 6.877458 -4.679001
5.632164 6.881799 -4.666917
4.978146 6.646819 -4.838416
4.984896 6.642653 -4.836905
5.656443 7.041021 -4.654661
5.649620 7.067008 -4.655337
5.654862 7.045099 -4.654894
5.654428 7.074092 -4.653867
6.129723 7.580698 -4.516090
6.129723 7.580698 -4.516090
4.816904 6.798359 -4.872500
4.835101 6.816252 -4.867284
4.828869 6.823839 -4.868534
4.840485 6.838224 -4.865088
4.811270 6.841163 -4.872223
5.856943 7.540870 -4.585343
5.861371 7.520659 -4.585035
5.899423 7.561410 -4.573997
5.878819 7.533597 -4.580199
4.719540 6.832090 -4.895342
4.798002 6.858451 -4.874839
4.819859 6.864022 -4.869197
5.873837 7.543111 -4.581063
4.688933 6.852653 -4.902133
4.691425 6.825959 -4.902560
4.691425 6.825959 -4.902560
4.722541 6.866413 -4.893254
4.728178 6.869429 -4.891737
4.676753 6.854043 -4.905101
4.676164 6.850721 -4.905377
4.725023 6.874994 -4.892303
4.783395 6.935841 -4.875436
4.796758 6.929373 -4.872373
4.687053 6.892680 -4.901033
4.684313 6.917964 -4.900724
4.097922 6.649033 -5.056769
5.515805 7.747225 -4.661925
5.531475 7.743681 -4.658175
5.542946 7.721884 -4.656181
5.549455 7.734556 -4.654070
5.512209 7.764552 -4.662139
5.508048 7.785540 -4.662351
4.754889 7.653978 -4.854406
4.740145 7.674994 -4.857242
4.748409 7.688033 -4.854681
4.682767 7.724700 -4.869536
4.740640 7.712111 -4.855667
4.673563 7.742455 -4.871125
4.665712 7.757437 -4.872487
4.699776 7.737401 -4.864818
4.711846 7.764919 -4.860745
4.748747 7.791773 -4.850538
4.669308 7.801864 -4.869856
4.658652 7.769460 -4.873768
4.651587 7.809324 -4.873962
4.528119 7.762457 -4.906436
4.606304 7.833871 -4.884239
4.482531 7.753808 -4.918087
4.478762 7.762161 -4.918697
4.576272 7.836240 -4.891599
4.623285 7.868102 -4.878685
4.639520 7.875989 -4.874347
4.454823 7.768661 -4.924383
4.548481 7.830843 -4.898707
5.198286 8.396091 -4.715328
3.915467 7.408051 -5.072344
3.919772 7.422366 -5.070715
4.177110 7.615757 -4.999285
4.673922 7.992996 -4.861231
4.179137 7.630476 -4.998206
4.681099 8.036040 -4.857766
4.189788 7.726572 -4.991802
4.188715 7.721461 -4.992269
4.664551 8.227678 -4.854373
4.844748 8.347833 -4.804952
3.952561 7.725259 -5.050725
4.021134 7.732814 -5.033412
4.666698 8.358060 -4.848738
4.552404 8.305504 -4.879158
4.652433 8.391146 -4.850982
4.653980 8.373593 -4.851285
3.935910 7.883600 -5.048660
4.522358 8.375206 -4.883886
3.919981 7.977656 -5.048932
3.956568 7.995397 -5.039158
4.427727 8.408883 -4.906052
3.974584 8.032796 -5.033224
4.353631 8.413381 -4.924264
3.923035 8.076914 -5.044290
3.913549 8.062703 -5.047200
3.928175 8.082873 -5.042781
3.930421 8.099913 -5.041556
3.930421 8.099913 -5.041556
3.917507 8.196514 -5.040981
3.911732 8.195440 -5.042456
3.963446 8.294225 -5.025757
3.933772 8.371776 -5.030086
3.946333 8.379023 -5.026685
3.927915 8.443382 -5.028737
3.984819 8.410649 -5.015896
6.332679 5.964869 -4.528959
6.198046 5.966535 -4.562305
6.240417 6.001597 -4.550418
5.772563 6.010163 -4.666187
5.669710 6.021832 -4.691255
6.241633 6.714156 -4.522231
6.154667 6.677014 -4.545266
5.523739 6.865341 -4.694468
5.541419 6.966933 -4.686105
4.706407 6.800396 -4.899842
4.706407 6.800396 -4.899842
5.856994 7.512320 -4.586448
4.744093 6.864018 -4.888000
5.836952 7.528360 -4.590794
5.843588 7.517146 -4.589585
5.901834 7.563700 -4.573309
4.787527 6.909670 -4.875434
5.506269 7.714544 -4.665571
3.985719 6.797531 -5.078802
5.445909 7.778728 -4.678038
4.720628 7.658638 -4.862726
4.642393 7.791199 -4.876953
4.167236 7.525227 -5.005278
4.167054 7.523703 -5.005383
4.313675 7.620153 -4.965222
4.440390 7.738167 -4.929158
4.457446 7.741240 -4.924805
4.180241 7.719526 -4.994447
4.927333 8.369570 -4.783607
3.948965 8.394826 -5.025413
4.750563 7.620715 -4.856781
6.079456 5.976497 -4.591345
6.112029 6.036229 -4.580924
5.867812 6.000315 -4.642934
5.727912 6.016582 -4.677016
5.699946 5.997251 -4.684713
5.494071 5.961715 -4.737194
6.180029 6.720077 -4.537287
6.162655 6.689663 -4.542789
5.765164 6.768466 -4.638347
5.765306 6.768906 -4.638295
5.765306 6.768906 -4.638295
5.137774 6.657181 -4.798397
5.527472 6.990472 -4.688645
3.939564 6.276046 -5.110664
4.713908 6.744287 -4.900177
4.180423 6.634400 -5.036868
4.595762 6.846383 -4.925500
4.669448 6.898036 -4.905192
5.475274 7.725446 -4.672836
5.492545 7.775612 -4.666586
4.740470 7.695454 -4.856361
4.767536 7.710180 -4.849068
4.505629 7.761903 -4.912040
4.635889 7.835186 -4.876846
4.897794 8.318160 -4.792949
4.897794 8.318160 -4.792949
4.853955 8.305702 -4.804316
4.853955 8.305702 -4.804316
4.829823 8.337003 -4.809080
4.442568 8.407815 -4.902411
3.896573 8.189605 -5.046446
6.109295 6.697580 -4.555720
6.154726 6.686923 -4.544863
5.387427 6.623928 -4.737743
5.315984 6.666873 -4.753793
5.333127 6.669390 -4.749440
5.118509 6.640316 -4.803838
5.536591 6.898314 -4.689989
5.546210 6.927351 -4.686465
5.533970 6.949476 -4.688637
5.593398 6.958080 -4.673552
4.699835 6.758262 -4.903122
4.685483 6.820832 -4.904234
4.716392 6.842790 -4.895705
4.696653 6.852939 -4.900206
4.653130 6.863768 -4.910584
4.655116 6.895483 -4.908849
4.693419 6.869508 -4.900360
4.701752 6.976130 -4.894120
5.498286 7.720208 -4.667330
5.498286 7.720208 -4.667330
4.869771 7.490513 -4.832294
5.445909 7.778728 -4.678038
5.447764 7.786425 -4.677276
4.636994 7.765154 -4.879312
4.228192 7.593564 -4.987476
4.169309 7.620944 -5.001018
4.655208 8.004091 -4.865441
4.655208 8.004091 -4.865441
3.963530 7.896236 -5.041311
3.984279 7.890386 -5.036391
4.891686 8.340040 -4.793608
3.958648 8.134816 -5.033185
3.938627 8.227881 -5.034512
3.963986 8.234819 -5.027947
3.966634 8.241470 -5.027030
5.530819 6.883567 -4.691998
4.825821 8.351583 -4.809502
3.982607 6.015736 -5.110170
3.983307 6.018901 -5.109872
6.046878 5.999379 -4.598534
5.555848 6.880637 -4.685902
5.570445 6.902128 -4.681438
5.644523 6.903549 -4.662999
4.715706 7.709479 -4.861957
5.452414 7.772538 -4.676666
5.429369 7.786732 -4.681829
4.620850 7.825799 -4.880945
3.981386 7.903035 -5.036613
4.627896 7.995802 -4.872543
3.961966 8.110570 -5.033311
3.936321 8.205905 -5.035944
6.349566 8.472989 -4.426614
4.433179 8.412577 -4.904554
4.972435 8.379465 -4.772027
4.667274 6.832735 -4.908288
5.516233 6.857131 -4.696652
5.531134 6.881805 -4.691989
4.554779 7.759538 -4.899934
6.356179 8.484132 -4.424536
5.652835 5.978478 -4.697139
5.649600 5.990917 -4.697455
4.555170 7.735138 -4.900792
6.312186 8.416814 -4.438089
6.312849 8.425883 -4.437569
6.311692 8.422877 -4.437973
6.312525 8.426067 -4.437642
5.856064 5.910504 -4.649365
6.103840 5.910920 -4.587860
6.101254 5.911376 -4.588483
6.347288 8.122948 -4.440878
6.342129 8.138724 -4.441541
6.347288 8.122948 -4.440878
6.347288 8.122948 -4.440878
6.343678 5.912424 -4.528282
6.245722 5.910876 -4.552652
5.877813 5.911852 -4.643915
6.265837 5.909785 -4.547703
6.318557 5.905781 -4.534776
6.332121 5.906015 -4.531401
6.352963 5.912565 -4.525972
6.364121 7.940769 -4.443830
6.355611 8.409649 -4.427592
5.427320 5.907575 -4.755878
6.004768 5.904749 -4.612688
5.994012 5.965660 -4.612973
6.019036 5.981130 -4.606157
6.014177 5.985091 -4.607209
6.014177 5.985091 -4.607209
6.088904 5.902026 -4.591915
6.348492 8.399690 -4.429749
6.021385 5.882782 -2.499640
6.000223 5.893771 -2.406588
6.006260 5.896301 -2.433148
5.967762 5.946897 -2.263954
6.272234 6.653769 -3.604954
5.933867 5.954768 -2.114886
5.928564 6.045090 -2.091796
6.327688 6.011195 -3.847202
5.931909 6.031142 -2.106475
5.933810 6.233105 -2.115355
5.935342 6.564992 -2.122954
5.942946 6.590703 -2.156463
5.943655 6.590312 -2.159581
5.946253 6.609292 -2.171056
5.947731 7.714592 -2.180407
5.932695 7.772588 -2.114429
5.931170 7.777200 -2.107730
5.930700 7.824880 -2.105789
5.929592 8.240973 -2.101986
5.930580 8.251040 -2.106358
6.118018 8.318714 -2.930954
6.168377 8.334059 -3.152494
6.178834 8.326941 -3.198472
6.419405 6.008442 -4.250597
6.221719 8.343051 -3.387133
6.141118 5.948078 -3.026433
6.143609 5.962465 -3.037426
6.143518 5.962905 -3.037032
6.198809 6.628544 -3.281941
6.201359 6.646168 -3.293201
6.331888 6.013345 -3.865682
6.373690 6.021324 -4.049566
6.376640 6.023262 -4.062541
5.974329 8.315993 -2.298953
6.385473 6.020801 -4.101385
6.385701 6.019421 -4.102388
6.418985 6.032755 -4.248815
6.424136 6.026434 -4.271458
6.433098 6.013348 -4.310840
6.428411 6.013265 -4.290221
6.434506 6.022006 -4.317060
6.437049 6.030791 -4.328265
5.932086 6.218884 -2.107735
5.932586 6.244449 -2.110003
5.932510 6.403273 -2.110076
5.932668 6.429684 -2.110841
5.935110 6.415056 -2.121544
5.938313 6.579014 -2.136054
5.949436 6.591125 -2.185008
5.930741 7.755609 -2.105791
5.930809 7.793721 -2.106187
6.131344 6.852953 -2.985785
6.134253 6.850229 -2.998571
5.982147 7.690935 -2.331723
5.994011 7.689352 -2.383901
6.006204 7.675733 -2.437498
6.324355 6.007909 -3.832536
6.204966 6.640965 -3.309051
6.012537 7.683763 -2.465370
6.023153 7.668825 -2.512027
5.929314 8.231719 -2.100737
6.185371 6.858565 -3.223429
6.031846 7.676442 -2.550281
6.190405 6.847564 -3.245543
5.931013 8.264394 -2.108296
6.042290 7.692032 -2.596258
6.049957 7.710428 -2.630028
6.207836 6.840370 -3.322191
6.215420 6.837690 -3.355540
6.223781 6.834434 -3.392309
6.225669 6.846366 -3.400642
6.224293 6.842487 -3.394580
6.234433 6.842343 -3.439177
6.380484 6.027927 -4.079463
6.271336 6.673371 -3.601056
6.275386 6.682643 -3.618896
6.391465 6.032577 -4.127771
6.017791 8.330585 -2.490148
6.416550 6.010821 -4.238049
6.416550 6.010821 -4.238049
6.032027 8.329119 -2.552760
6.026430 8.334788 -2.528159
6.418976 5.989703 -4.248666
6.403605 5.993442 -4.181068
6.400411 5.992355 -4.167015
6.390218 5.984922 -4.122165
6.388602 5.996199 -4.115089
6.379102 5.985211 -4.073273
6.374813 5.987219 -4.054412
6.367499 5.988607 -4.022247
6.363417 5.985754 -4.004287
6.363619 5.991797 -4.005190
6.362427 5.991275 -3.999946
6.359468 5.987002 -3.986923
6.355423 5.987029 -3.969133
6.350757 5.984226 -3.948597
6.345747 5.976111 -3.926541
6.347547 5.983534 -3.934478
6.347656 5.984755 -3.934963
6.340763 5.970939 -3.904608
6.342047 5.976811 -3.910272
6.337424 5.978271 -3.889940
6.331800 5.979028 -3.865203
6.327691 5.994310 -3.847170
6.329017 6.007408 -3.853039
6.329017 6.007408 -3.853039
6.329017 6.007408 -3.853039
6.324486 5.994265 -3.833073
6.324752 6.008290 -3.834283
6.322620 6.025439 -3.824949
6.319050 6.024856 -3.809246
6.319798 6.039423 -3.812575
6.317918 6.037115 -3.804297
6.318192 6.059639 -3.805561
6.316728 6.080995 -3.799180
6.316930 6.106040 -3.800133
6.208393 5.944834 -3.322326
6.377017 6.847552 -4.066328
6.205118 5.957913 -3.307960
6.353824 6.828489 -3.964267
6.190691 5.948744 -3.244480
6.184761 5.947262 -3.218394
6.180089 5.936916 -3.197818
6.174615 5.936314 -3.173740
6.170527 5.950117 -3.155794
6.333940 6.860497 -3.876892
6.331323 6.882749 -3.865439
6.327692 6.875463 -3.849453
6.323647 6.878498 -3.831670
6.152487 5.935446 -3.076413
6.321873 6.906940 -3.823937
6.322000 6.907141 -3.824496
6.319156 6.924000 -3.812033
6.137250 5.942474 -3.009410
6.314780 6.948531 -3.792846
6.311897 6.963113 -3.780205
6.198959 6.828995 -3.283116
6.171244 6.797219 -3.161133
6.166733 6.830175 -3.141379
6.160097 6.822154 -3.112167
6.160420 6.826395 -3.113599
6.143216 6.813576 -3.037901
6.138966 6.814894 -3.019210
6.134485 6.824048 -2.999523
6.134933 6.817844 -3.001477
6.131236 6.833749 -2.985256
6.131916 6.836754 -2.988257
6.129483 6.836475 -2.977555
6.126354 6.836799 -2.963797
6.121236 6.856404 -2.941333
6.125031 6.867411 -2.958053
6.115081 6.892672 -2.914353
6.111851 6.904625 -2.900177
6.111342 6.929589 -2.898008
5.939120 5.956007 -2.138000
6.004964 7.677152 -2.432044
5.994519 7.652432 -2.386044
5.984342 7.659194 -2.341297
5.983208 7.664933 -2.336322
5.982628 7.665214 -2.333773
5.978582 7.659155 -2.315961
5.981406 7.673230 -2.328418
5.973850 7.660738 -2.295154
5.955067 7.663704 -2.212542
5.946776 7.665185 -2.176084
5.947068 7.688879 -2.177429
6.435835 6.014802 -4.322883
6.392638 5.977336 -4.132791
6.390128 5.992097 -4.121787
6.319712 6.095577 -3.812340
6.318956 6.085503 -3.808991
6.319658 6.212779 -3.812407
6.288359 6.245022 -3.674823
6.385340 6.854123 -4.102955
6.152965 5.939294 -3.078519
6.328491 6.890035 -3.853006
6.146230 5.927462 -3.048866
6.318737 6.915846 -3.810169
6.138317 5.946584 -3.014111
6.135196 5.945193 -3.000384
6.132737 5.952636 -2.989584
6.132226 5.944082 -2.987318
6.129353 5.952525 -2.974697
6.130576 5.973807 -2.980134
6.195197 6.614078 -3.266014
6.127803 6.853020 -2.970210
6.120844 6.885740 -2.939687
5.942237 5.969874 -2.151742
5.942728 5.968507 -2.153895
5.988919 7.669413 -2.361456
6.099873 8.552039 -2.851750
5.979698 7.664583 -2.320884
6.443936 6.027854 -4.358551
6.439302 6.013404 -4.338127
6.433204 6.026302 -4.311341
6.412915 5.998792 -4.222031
6.399550 5.983860 -4.163206
6.395782 5.977862 -4.146621
6.395905 5.978782 -4.147166
6.385140 6.003609 -4.099880
6.370608 5.985826 -4.035915
6.321184 6.023856 -3.818628
6.319884 6.060056 -3.813004
6.320986 6.221641 -3.818270
6.277507 6.041712 -3.626565
6.312738 6.250180 -3.782065
6.312562 6.249119 -3.781289
6.312233 6.247109 -3.779835
6.285206 6.182374 -3.660796
6.285206 6.182374 -3.660796
6.285206 6.182374 -3.660796
6.237517 5.950556 -3.450442
6.232961 5.952624 -3.430406
6.227612 5.950312 -3.406875
6.282785 6.248805 -3.650316
6.212837 5.940725 -3.341867
6.391889 6.828393 -4.131694
6.386790 6.821519 -4.109246
6.194679 5.952928 -3.262031
6.189118 5.936640 -3.237532
6.363484 6.817702 -4.006732
6.183167 5.940809 -3.211365
6.287601 6.477774 -3.672094
6.286407 6.451648 -3.666771
6.284797 6.471110 -3.659740
6.352745 6.831859 -3.959532
6.165956 5.948765 -3.135686
6.156136 5.941539 -3.092472
6.312602 6.950708 -3.783277
6.314627 6.971674 -3.792237
6.313917 7.007874 -3.789207
6.313440 7.003770 -3.787097
6.314619 7.015313 -3.792311
6.314619 7.015313 -3.792311
6.312482 7.036627 -3.782969
6.309999 7.048662 -3.772076
6.212427 6.848067 -3.342400
6.195092 6.826918 -3.266105
6.176557 6.798149 -3.184502
6.261696 7.332153 -3.560358
6.011449 5.959027 -2.456135
6.254551 7.437613 -3.529203
6.250432 7.447292 -3.511112
6.245635 7.474812 -3.490081
6.245635 7.474812 -3.490081
6.129518 6.844575 -2.977729
6.128925 6.865839 -2.975175
6.110440 6.954964 -2.894106
6.180281 7.647368 -3.203079
6.181576 7.673470 -3.208843
6.181568 7.673730 -3.208803
6.179206 7.682052 -3.198436
6.135435 7.726383 -3.006033
6.132342 7.739620 -2.992465
6.123885 7.777656 -2.955364
6.127851 7.765316 -2.972779
6.124676 7.789760 -2.958874
6.122328 7.798950 -2.948568
6.035167 7.688765 -2.564919
6.006063 7.664064 -2.436842
5.986410 7.680937 -2.350447
5.973977 7.676773 -2.295751
6.073835 8.496383 -2.737081
5.942548 7.716192 -2.157617
6.035382 8.472349 -2.567889
5.937710 7.766697 -2.136466
6.011493 8.438655 -2.462726
5.990557 8.395582 -2.370531
5.974753 8.359571 -2.300930
6.430439 6.042434 -4.299222
6.405235 5.993825 -4.188240
6.276687 6.040788 -3.622957
6.314257 6.245674 -3.788734
6.279884 6.166339 -3.637343
6.232154 5.958816 -3.426872
6.276919 6.254002 -3.624529
6.276807 6.284121 -3.624115
6.318972 6.939801 -3.811261
6.010613 5.966058 -2.452479
6.255526 7.427510 -3.533463
6.254754 7.430171 -3.530075
6.108819 6.946444 -2.886953
6.181854 7.665858 -3.210044
6.021423 7.682002 -2.504454
6.035011 8.483958 -2.566284
6.418492 6.000025 -4.246563
6.362871 5.997909 -4.001918
6.330318 5.977376 -3.858684
6.275829 6.065536 -3.619251
6.223527 5.956671 -3.388925
6.280391 6.201131 -3.639663
6.222088 5.953770 -3.382588
6.277554 6.308385 -3.627463
6.276807 6.284121 -3.624115
6.179520 5.946208 -3.195337
6.380788 6.850348 -4.082924
6.161342 5.940562 -3.115368
6.164694 5.942082 -3.130116
6.365326 6.846223 -4.014906
6.367318 6.833079 -4.023628
6.360016 6.832853 -3.991515
6.150799 5.950639 -3.069022
6.368062 6.854113 -4.026963
6.146675 5.946198 -3.050876
6.146645 5.945748 -3.050738
6.146697 5.946467 -3.050970
6.248091 6.615941 -3.498666
6.166387 6.845016 -3.139895
6.150820 6.822321 -3.071364
6.147350 6.828570 -3.056120
6.146745 6.823389 -3.053444
6.137763 6.815683 -3.013917
6.133144 6.831678 -2.993649
6.010428 7.660387 -2.456036
6.010428 7.660387 -2.456036
6.007962 7.679003 -2.445240
6.003613 7.682861 -2.426117
5.993093 7.680695 -2.379844
5.984649 7.677565 -2.342694
5.979613 7.681740 -2.320554
5.970763 7.675813 -2.281612
5.966715 7.663651 -2.263778
5.951900 7.675689 -2.198646
5.950010 7.677279 -2.190339
6.078364 8.493319 -2.756993
6.013249 8.362653 -2.470256
6.018193 8.417863 -2.492142
6.008296 8.430501 -2.448648
6.005646 8.411110 -2.436944
5.978806 8.357922 -2.318749
6.437764 6.046673 -4.331450
6.399152 5.986621 -4.161465
6.285755 6.093442 -3.662977
6.285576 6.091861 -3.662190
6.285576 6.091861 -3.662190
6.321080 6.253942 -3.818765
5.969536 5.948299 -2.271757
6.029178 7.700755 -2.538607
6.021672 7.664946 -2.505501
6.020924 7.647040 -2.502163
6.017566 7.673931 -2.487467
5.982378 7.685056 -2.332726
5.970853 7.659473 -2.281967
5.971597 7.662807 -2.285246
5.933095 7.839373 -2.116354
6.013322 8.364234 -2.470581
5.983260 8.431842 -2.338529
6.355243 6.000103 -3.968369
6.317835 6.185464 -3.804315
6.285810 6.093001 -3.663219
6.406744 6.858541 -4.197107
6.373920 6.852666 -4.052724
6.358289 6.842655 -3.983945
6.241747 6.628024 -3.470796
6.241746 6.628034 -3.470794
6.241746 6.628034 -3.470794
6.202343 6.826608 -3.297998
5.969324 5.944738 -2.270812
5.948165 5.953859 -2.177774
5.990544 7.683208 -2.368639
6.092172 8.536059 -2.817838
6.092718 8.532190 -2.820225
5.992333 8.369503 -2.378282
5.990356 8.396502 -2.369653
6.419652 6.025724 -4.251736
6.383032 5.989013 -4.090567
6.379115 5.993922 -4.073354
6.374238 5.992149 -4.051894
6.371494 6.001011 -4.039851
6.336953 5.981163 -3.887876
6.246069 5.969067 -3.488106
6.241317 5.962972 -3.467189
6.207138 5.938432 -3.316789
6.205135 5.960600 -3.308037
6.199307 5.955731 -3.282393
6.180933 5.953643 -3.201570
6.429406 6.732237 -4.296455
6.429533 6.747381 -4.297054
6.429406 6.732237 -4.296455
6.424424 6.752396 -4.274596
6.424356 6.752346 -4.274292
6.424356 6.752346 -4.274292
6.316336 6.560884 -3.798693
6.311845 6.550033 -3.778912
6.397524 6.843628 -4.156516
6.321122 6.593701 -3.819826
6.291197 6.473347 -3.687897
6.369138 6.832587 -4.031636
6.236882 6.833004 -3.449927
6.234281 6.849629 -3.438530
6.235783 6.847488 -3.445131
6.207076 6.837352 -3.318839
6.151287 6.843093 -3.073471
5.987761 7.716622 -2.356486
5.981809 7.675334 -2.330197
5.977568 8.379925 -2.313362
5.964109 8.397598 -2.254211
6.429722 6.003109 -4.295965
6.413170 6.009265 -4.223179
6.328515 6.604477 -3.852370
6.242368 6.644297 -3.473570
6.007888 5.963217 -2.440481
6.007888 5.963217 -2.440481
6.007888 5.963217 -2.440481
6.005266 5.939729 -2.428889
5.991409 5.943129 -2.367949
5.965540 5.942545 -2.254166
5.962389 5.952446 -2.240333
5.951992 5.940667 -2.194572
6.225028 6.821430 -3.397754
6.223562 6.817357 -3.391299
6.148886 6.832190 -3.062886
6.141603 6.810023 -3.030796
5.992321 6.781601 -2.374129
5.962588 7.668860 -2.245640
5.958281 7.674218 -2.226707
6.022885 8.429311 -2.512812
6.007819 8.412455 -2.446501
6.392958 5.986298 -4.134221
6.386798 5.992806 -4.107143
6.295700 6.457210 -3.707660
6.320667 6.563471 -3.817748
6.295415 6.474415 -3.706452
6.393773 6.855249 -4.140050
5.970140 5.938924 -2.274387
5.954174 5.948945 -2.204190
6.240402 6.858487 -3.465473
6.048329 7.707971 -2.622862
6.048321 7.706941 -2.622824
5.953623 7.681579 -2.206239
6.362275 5.989464 -3.999274
6.358314 5.990512 -3.981852
6.355176 5.998602 -3.968076
6.216231 5.950049 -3.356815
6.202269 5.950078 -3.295405
6.174740 5.959642 -3.174350
6.174740 5.959642 -3.174350
6.001523 5.914957 -2.412361
6.001523 5.914957 -2.412361
6.001523 5.914957 -2.412361
5.987530 5.935874 -2.350868
6.333040 6.627662 -3.872333
6.328677 6.605958 -3.853086
6.317003 6.587962 -3.801697
6.442348 6.895510 -4.353799
6.409738 6.863790 -4.210289
6.377986 6.859594 -4.070622
6.236251 6.824399 -3.447127
6.233809 6.837837 -3.436422
6.229677 6.822035 -3.418206
6.171287 6.815864 -3.161372
6.170451 6.798488 -3.157652
5.991183 6.806259 -2.369182
5.991217 6.807849 -2.369339
6.030252 7.704566 -2.543342
5.996745 7.677203 -2.395897
5.972883 7.676578 -2.290943
6.115020 8.332773 -2.917806
6.023481 8.464648 -2.515524
6.018783 8.439325 -2.494793
6.245234 5.962485 -3.484410
6.442305 6.895582 -4.353611
6.442305 6.895582 -4.353611
5.923326 5.984018 -2.068600
5.923326 5.984018 -2.068600
6.401939 6.849565 -4.175954
5.923892 6.023220 -2.071192
5.923892 6.023220 -2.071192
6.182605 6.820142 -3.211164
6.178609 6.807854 -3.193559
6.171587 6.824897 -3.162717
5.921476 6.510203 -2.061821
5.984149 5.923404 -2.335965
6.167650 6.818879 -3.145381
6.154519 6.815762 -3.087620
5.921170 6.504150 -2.060463
5.921658 6.509574 -2.062621
6.022294 8.342950 -2.509991
5.988889 5.952146 -2.356890
5.988895 5.951826 -2.356915
5.988895 5.951826 -2.356915
6.424397 6.725931 -4.274415
6.419251 6.772616 -4.251898
6.206079 6.841634 -3.314466
6.186750 6.848381 -3.229469
6.183090 6.829519 -3.213318
6.042810 7.695062 -2.598552
6.068109 7.885911 -2.710316
6.067801 7.899435 -2.708999
6.039423 8.492725 -2.585717
6.419553 6.741356 -4.253144
6.015714 7.671531 -2.479312
3.831287 6.159217 -5.024266
3.831502 6.158372 -5.025171
3.828991 6.203716 -5.016211
3.829926 6.209892 -5.020612
3.829626 6.264215 -5.021801
3.829774 6.264367 -5.022460
3.827439 6.400300 -5.018457
3.822231 6.381361 -4.994652
3.820924 6.435863 -4.991417
3.706609 5.964683 -4.466399
3.706650 5.965100 -4.466599
3.699667 5.959934 -4.435618
3.698051 5.976972 -4.429291
3.696496 5.975759 -4.422385
3.695883 5.989801 -4.420336
3.697149 5.990798 -4.425957
3.696785 5.985122 -4.424095
3.696785 5.985122 -4.424095
3.620940 5.948138 -4.088484
3.598676 5.950001 -3.990551
3.596420 5.945709 -3.980423
3.599565 5.958293 -3.994849
3.602145 5.957622 -4.006180
3.594826 5.944633 -3.973357
3.591153 5.947624 -3.957325
3.587725 5.935920 -3.941694
3.582272 5.944870 -3.918098
3.584757 5.951165 -3.929330
3.578674 5.944282 -3.902231
3.579662 5.949802 -3.906837
3.571460 5.944567 -3.870486
3.567870 5.944301 -3.854670
3.566605 5.935452 -3.848692
3.558816 5.931384 -3.814214
3.559995 5.926353 -3.819170
3.554116 5.930722 -3.793489
3.557567 5.923647 -3.808359
3.555687 5.937646 -3.800727
3.549351 5.933026 -3.772620
3.551908 5.930214 -3.783750
3.703669 6.846478 -4.494166
3.546533 5.930917 -3.760116
3.549242 5.932602 -3.772125
3.535558 5.924631 -3.711513
3.538251 5.928023 -3.723523
3.539227 5.925845 -3.727717
3.530561 5.916341 -3.689130
3.685843 6.843261 -4.415545
3.528392 5.925805 -3.680017
3.525127 5.915382 -3.665163
3.531730 5.931081 -3.694956
3.521822 5.925318 -3.651072
3.525559 5.939571 -3.668179
3.519204 5.919864 -3.639292
3.520021 5.930888 -3.643398
3.516414 5.944404 -3.628143
3.508132 5.931856 -3.591102
3.510635 5.933993 -3.602221
3.507334 5.940919 -3.588008
3.503451 5.960601 -3.571824
3.505021 5.959519 -3.578685
3.503839 5.966291 -3.573796
3.505500 5.947800 -3.580252
3.503424 6.021605 -3.574522
3.749736 7.698977 -4.736335
3.742243 7.695532 -4.703187
3.606288 6.847926 -4.065524
3.595121 6.810395 -4.014630
3.595420 6.810020 -4.015926
3.597687 6.822919 -4.026505
3.783830 8.159797 -4.907707
3.783779 8.161245 -4.907549
3.701589 7.666090 -4.522855
3.707277 7.672058 -4.548168
3.702886 7.682997 -4.529346
3.703097 7.685375 -4.530384
3.422751 5.922798 -3.214801
3.693596 7.719206 -4.490116
3.691819 7.695254 -4.481189
3.552116 6.807929 -3.825187
3.688423 7.713501 -4.467080
3.689424 7.715258 -4.471567
3.413095 5.910404 -3.171722
3.409802 5.904042 -3.156930
3.680556 7.719747 -4.432734
3.406168 5.918983 -3.141621
3.402494 5.908852 -3.124979
3.523316 6.788433 -3.697497
3.527646 6.792518 -3.716749
3.670134 7.752483 -4.388365
3.385293 5.907336 -3.049180
3.515821 6.797701 -3.664931
3.657491 7.785369 -4.334225
3.660683 7.783365 -4.348182
3.381048 5.908116 -3.030529
3.511811 6.793099 -3.647067
3.512365 6.799119 -3.649781
3.510951 6.804687 -3.643812
3.548453 7.045889 -3.820048
3.653719 7.808649 -4.318694
3.508623 6.802823 -3.633475
3.373394 5.914018 -2.997103
3.506507 6.826893 -3.625275
3.725807 8.377663 -4.662329
3.723409 8.377344 -4.651753
3.370067 5.910846 -2.982313
3.498796 6.826399 -3.591305
3.502302 6.834027 -3.607093
3.592374 7.489460 -4.033888
3.718832 8.369441 -4.631241
3.365535 5.909177 -2.962286
3.362872 5.899900 -2.950131
3.497728 6.836810 -3.587084
3.531697 7.090167 -3.748327
3.709609 8.357276 -4.590073
3.358560 5.896055 -2.930971
3.701985 8.362283 -4.556740
3.704724 8.353827 -4.568408
3.354337 5.889367 -2.912073
3.691461 8.340376 -4.509398
3.687119 8.346286 -4.490553
3.687491 8.327333 -4.491318
3.345588 5.910467 -2.874527
3.430938 6.537401 -3.279222
3.342541 5.910158 -2.861100
3.427764 6.539862 -3.265364
3.481567 6.944240 -3.520896
3.675357 8.346315 -4.438774
3.671910 8.335924 -4.423122
3.424719 6.550384 -3.252441
3.478303 6.959742 -3.507243
3.335179 5.934658 -2.829819
3.420374 6.578695 -3.234622
3.482339 7.001341 -3.526931
3.480779 7.000165 -3.520008
3.482339 7.001341 -3.526931
3.416852 6.571205 -3.218772
3.642492 8.279358 -4.290997
3.648386 8.345186 -4.319985
3.319476 5.917168 -2.759881
3.316307 5.932755 -2.746653
3.318757 5.939730 -2.757761
3.316136 5.987126 -2.748411
3.625709 8.377213 -4.221633
3.391347 6.759671 -3.115188
3.387199 6.767767 -3.097301
3.383611 6.772256 -3.081712
3.385558 6.760393 -3.089738
3.380167 6.777219 -3.066776
3.380642 6.767315 -3.068414
3.372002 6.764734 -3.030258
3.368263 6.770670 -3.014071
3.371337 6.780536 -3.028057
3.362243 6.757548 -2.986963
3.362966 6.764508 -2.990467
3.327476 6.744904 -2.833319
3.334588 6.783317 -2.866404
3.323117 6.755867 -2.814633
3.324929 6.761058 -2.822853
3.323558 6.771608 -2.817306
3.319622 6.775373 -2.800149
3.317035 6.760083 -2.788055
3.321795 6.769074 -2.809426
3.314011 6.759714 -2.774723
3.313138 6.765752 -2.771157
3.309452 6.753975 -2.754389
3.307330 6.769096 -2.745747
3.305047 6.771217 -2.735793
3.488441 8.364236 -3.616721
3.480316 8.350082 -3.580298
3.358363 7.341753 -2.996853
3.831102 6.402540 -5.034686
3.821266 6.405495 -4.991520
3.821266 6.405495 -4.991520
3.820977 6.436172 -4.991662
3.820977 6.436172 -4.991662
3.605735 5.958583 -4.022026
3.582153 5.965634 -3.918532
3.563248 5.932508 -3.833778
3.644230 6.475600 -4.215372
3.697506 6.840779 -4.466772
3.697674 6.842859 -4.467608
3.533063 5.925668 -3.700574
3.529087 5.931611 -3.683342
3.622931 6.614245 -4.128002
3.765439 7.710862 -4.806015
3.762078 7.726778 -4.791954
3.754260 7.719490 -4.757200
3.737683 7.724597 -4.684453
3.419883 5.923861 -3.202222
3.561381 6.826007 -3.866812
3.696002 7.709288 -4.500250
3.552442 6.807420 -3.826599
3.500750 6.503387 -3.584993
3.405986 5.926044 -3.141144
3.575400 7.071190 -3.939850
3.530751 6.792867 -3.730436
3.666378 7.773833 -4.372814
3.662130 7.776874 -4.354255
3.664483 7.790390 -4.365236
3.663872 7.780790 -4.362105
3.545155 7.030425 -3.804816
3.542582 7.036693 -3.793780
3.541384 7.138569 -3.793206
3.530961 7.108327 -3.745926
3.342527 5.936812 -2.862267
3.328606 5.921207 -2.800260
3.328712 5.948614 -2.801996
3.401673 6.774547 -3.161335
3.401185 6.752931 -3.158189
3.390083 6.776524 -3.110400
3.572406 8.381915 -3.987188
3.358218 6.756731 -2.969206
3.354551 6.762202 -2.953312
3.356296 6.768306 -2.961276
3.562499 8.451807 -3.946798
3.344317 6.761310 -2.908216
3.335917 6.753971 -2.870899
3.480597 8.419393 -3.584736
3.689172 6.151485 -4.398258
3.688398 6.146053 -4.394600
3.687339 6.174835 -4.391267
3.633953 5.961373 -4.146385
3.627078 5.968020 -4.116421
3.599813 6.845961 -4.036929
3.745839 7.730989 -4.720656
3.591527 6.818262 -3.999168
3.574218 6.806694 -3.922435
3.576733 6.818170 -3.934033
3.426490 5.912566 -3.230788
3.571715 6.810727 -3.911598
3.565998 6.827154 -3.887192
3.541847 7.049634 -3.791137
3.550870 7.167981 -3.836329
3.493635 6.854674 -3.569891
3.325857 5.909666 -2.787627
3.324845 5.953376 -2.785189
3.479256 7.021258 -3.514278
3.316600 5.966783 -2.749511
3.388657 6.766970 -3.103683
3.386585 6.779292 -3.095126
3.350558 6.753076 -2.935311
3.328405 6.770801 -2.838604
3.481108 8.366301 -3.584533
3.622094 5.960147 -4.094120
3.648930 6.167447 -4.221831
3.602303 5.952824 -4.006654
3.606519 5.950621 -4.025111
3.771751 7.732491 -4.834804
3.773178 7.735821 -4.841239
3.604404 6.827990 -4.056309
3.631588 7.147904 -4.190755
3.601878 7.089594 -4.057264
3.558524 6.848954 -3.855292
3.541338 6.815609 -3.778093
3.685694 7.690755 -4.454013
3.489690 6.510365 -3.536624
3.519465 6.790340 -3.680634
3.524985 6.817269 -3.706177
3.527576 6.795295 -3.716570
3.542058 7.007602 -3.790127
3.503009 6.817973 -3.609460
3.568185 7.214868 -3.914718
3.663267 7.792295 -4.359970
3.659538 7.793534 -4.343612
3.339868 5.927312 -2.850126
3.339820 5.927602 -2.849926
3.479011 6.934735 -3.509206
3.418689 6.789274 -3.236928
3.395574 6.763736 -3.133986
3.397325 6.775373 -3.142231
3.393128 6.770206 -3.123514
3.375292 6.771868 -3.045069
3.340766 6.767580 -2.892872
3.330755 6.770329 -2.848931
3.327652 6.793702 -2.836347
3.484497 8.359066 -3.599119
3.482543 8.364402 -3.590759
3.739346 5.968029 -4.610676
3.750599 5.983610 -4.660933
3.734957 5.968146 -4.591358
3.736215 5.985557 -4.597702
3.735873 5.967205 -4.595347
3.655075 6.049826 -4.243456
3.611676 5.967649 -4.048600
3.649008 6.173801 -4.222468
3.649332 6.167722 -4.223614
3.588873 5.949479 -3.947373
3.648289 6.194129 -4.220243
3.550901 5.932765 -3.779433
3.542336 5.932858 -3.741731
3.533952 5.931311 -3.704751
3.643224 6.491978 -4.211694
3.634485 6.550822 -4.175939
3.640043 6.550232 -4.200380
3.635893 6.582635 -4.183609
3.639723 6.578865 -4.200294
3.713430 6.827220 -4.536252
3.447780 5.937060 -3.325648
3.498646 6.108845 -3.557513
3.500362 6.133376 -3.566203
3.696167 6.820634 -4.459948
3.699899 6.849333 -4.477704
3.433596 5.942437 -3.263451
3.415379 5.910896 -3.181796
3.430259 5.950751 -3.249148
3.418026 5.916655 -3.193719
3.420770 5.930125 -3.206419
3.456841 6.143362 -3.375063
3.457223 6.151468 -3.377120
3.457223 6.151468 -3.377120
3.389506 5.908285 -3.067773
3.399220 5.922705 -3.111205
3.386235 5.920477 -3.053937
3.616227 6.855446 -4.109624
3.595096 6.822060 -4.015057
3.605601 6.864626 -4.063269
3.533535 6.622317 -3.734818
3.580145 6.816403 -3.948977
3.583486 6.816417 -3.963686
3.585646 6.832058 -3.973917
3.594423 6.826382 -4.012291
3.487022 6.472088 -3.523112
3.486101 6.495582 -3.520141
3.508391 6.585824 -3.622437
3.522391 6.626013 -3.685929
3.577008 6.816677 -3.935179
3.588431 6.844885 -3.986767
3.334856 5.923391 -2.827877
3.507365 6.583966 -3.617836
3.511342 6.606510 -3.636383
3.570399 6.829780 -3.906685
3.573844 6.825242 -3.921643
3.576797 6.821749 -3.934483
3.502110 6.590269 -3.594995
3.557800 6.832117 -3.851329
3.548459 6.820444 -3.809667
3.631338 7.127903 -4.188730
3.768616 7.717149 -4.820291
3.777237 7.719083 -4.858335
3.535788 6.803517 -3.753101
3.606004 7.082022 -4.075084
3.608610 7.105869 -4.087656
3.608610 7.105869 -4.087656
3.608610 7.105869 -4.087656
3.526389 6.800937 -3.711603
3.601243 7.113932 -4.055592
3.603454 7.111935 -4.065236
3.508459 6.798645 -3.632562
3.508612 6.797029 -3.633162
3.590756 7.106914 -4.009101
3.750984 7.718855 -4.742747
3.502699 6.823298 -3.608343
3.547459 7.008393 -3.813943
3.563666 7.056178 -3.887498
3.729044 7.692541 -4.644944
3.729101 7.705740 -4.645802
3.317078 6.094884 -2.757529
3.498937 6.823987 -3.591814
3.530987 6.946482 -3.738567
3.584715 7.171781 -3.985500
3.715195 7.690676 -4.583887
3.726067 7.697711 -4.632076
3.312752 6.140146 -2.740575
3.494379 6.833273 -3.572176
3.530709 6.974729 -3.738646
3.537565 7.031724 -3.771460
3.580607 7.169223 -3.967300
3.484684 6.843167 -3.529949
3.523090 7.005481 -3.706527
3.531457 7.022923 -3.744164
3.536920 7.058525 -3.769861
3.535255 7.008004 -3.760195
3.567378 7.185733 -3.909823
3.571886 7.204945 -3.930557
3.577040 7.196137 -3.952839
3.623584 7.412550 -4.167736
3.702912 7.684191 -4.529514
3.312841 6.176531 -2.742646
3.518194 7.036894 -3.686420
3.523144 7.027432 -3.707774
3.531862 7.073674 -3.748293
3.546188 7.132089 -3.814057
3.559204 7.168535 -3.873042
3.562744 7.180447 -3.889176
3.562776 7.197998 -3.890126
3.567457 7.215526 -3.911546
3.574918 7.210602 -3.944166
3.537280 7.118412 -3.774210
3.558471 7.191102 -3.870857
3.558851 7.196870 -3.872797
3.555386 7.187550 -3.857110
3.555316 7.182425 -3.856566
3.562744 7.208935 -3.890494
3.685454 7.730287 -4.454784
3.685488 7.736650 -4.455230
3.692271 7.773515 -4.486791
3.529540 7.121788 -3.740291
3.555419 7.223231 -3.858906
3.413131 6.780674 -3.212063
3.310510 6.402136 -2.742803
3.356307 6.584538 -2.952842
3.304968 6.416924 -2.719088
3.352265 6.595648 -2.935558
3.399558 6.772281 -3.151917
3.476681 7.283881 -3.515069
3.570129 7.670138 -3.944301
3.349383 6.764767 -2.930680
3.348834 6.764198 -2.928235
3.346794 6.763476 -2.919223
3.332329 6.750211 -2.854930
3.333787 6.763847 -2.861978
3.344146 6.769908 -2.907863
3.476389 7.402902 -3.519277
3.333262 6.760231 -2.859501
3.642181 8.310821 -4.291080
3.631772 8.363087 -4.247670
3.416491 7.450403 -3.257773
3.599660 8.471072 -4.111288
3.588075 8.474411 -4.060441
3.593485 8.474106 -4.084240
3.338223 7.760395 -2.927519
3.342176 7.757506 -2.944789
3.345060 7.761601 -2.957671
3.348686 7.774883 -2.974249
3.332474 7.768710 -2.902593
3.343208 7.779048 -2.950324
3.333897 7.786920 -2.909698
3.334168 7.764252 -2.909845
3.333402 7.769192 -2.906698
3.592143 5.935834 -3.961137
3.503625 5.994363 -3.574148
3.414475 5.900624 -3.177346
3.398495 5.911594 -3.107502
3.399047 5.910727 -3.109889
3.397589 5.915948 -3.103711
3.378153 5.904691 -3.017625
3.376217 5.915240 -3.009588
3.375724 5.916727 -3.007489
3.366472 5.910419 -2.966465
3.370869 5.917737 -2.986160
3.619593 6.867117 -4.124984
3.618759 6.871880 -4.121532
3.608704 6.842219 -4.075895
3.492801 6.530207 -3.551235
3.511617 6.592892 -3.636967
3.317598 5.908942 -2.751234
3.313107 6.108417 -2.740672
3.743331 7.710920 -4.708690
3.527309 6.963282 -3.723151
3.536083 6.990166 -3.763018
3.310519 6.153559 -2.731365
3.526539 6.982083 -3.720630
3.577799 7.171685 -3.955051
3.711346 7.680347 -4.566467
3.489916 6.860206 -3.553773
3.555106 7.146190 -3.853968
3.527143 7.050035 -3.726424
3.547667 7.146442 -3.821232
3.543906 7.165366 -3.805547
3.558602 7.225419 -3.873017
3.554695 7.212070 -3.855203
3.693540 7.762809 -4.491886
3.426162 6.795788 -3.270123
3.384942 6.792274 -3.088494
3.377076 6.804110 -3.054413
3.638804 8.317039 -4.276504
3.760838 5.951557 -4.704529
3.757158 5.967408 -4.689061
3.756163 5.973275 -4.684953
3.759786 5.956465 -4.700127
3.764908 5.968928 -4.723253
3.766994 5.986127 -4.733229
3.731291 5.968659 -4.575241
3.605968 5.946199 -4.022479
3.603381 5.979061 -4.012607
3.605602 5.977200 -4.022302
3.647377 6.380791 -4.224848
3.436893 5.927540 -3.277281
3.708535 6.616397 -4.504966
3.394233 5.927052 -3.089450
3.329601 5.927116 -2.804916
3.540015 6.643652 -3.764332
3.619621 6.908772 -4.127030
3.579838 6.855061 -3.949406
3.427712 6.561197 -3.266118
3.556722 6.929453 -3.851077
3.552013 6.947403 -3.831177
3.526609 6.933399 -3.718690
3.548474 6.985445 -3.817348
3.597056 7.113780 -4.037155
3.491026 6.852005 -3.558281
3.485085 6.899071 -3.534297
3.530260 7.006812 -3.738150
3.553085 7.142616 -3.844908
3.552803 7.144240 -3.843741
3.411106 6.764344 -3.202392
3.553156 7.183332 -3.847101
3.413589 6.782269 -3.214149
3.424602 6.818279 -3.264294
3.382347 6.809805 -3.077883
3.353323 6.758327 -2.947729
3.350830 6.775165 -2.937532
3.318654 6.794448 -2.796768
3.475522 7.436338 -3.517004
3.480658 7.453891 -3.540426
3.649889 8.356300 -4.327118
3.653595 8.334063 -4.342407
3.627098 8.377034 -4.227737
3.581626 8.457674 -4.031275
3.575748 8.464009 -4.005690
3.541158 8.413848 -3.851092
3.361917 5.905894 -2.946205
3.383612 5.922167 -3.042467
3.486201 6.498026 -3.520693
3.313154 6.108433 -2.740880
3.300714 6.169501 -2.688936
3.300714 6.169501 -2.688936
3.597391 7.074930 -4.036836
3.610975 7.114542 -4.098467
3.424420 6.804773 -3.262870
3.426477 6.824420 -3.272835
3.429420 6.845118 -3.286747
3.348175 6.785866 -2.926336
3.470233 7.456480 -3.494650
3.580730 8.476680 -4.028207
3.450186 5.950704 -3.336867
3.310395 5.939365 -2.720927
3.612803 7.095532 -4.105638
3.310560 6.574577 -2.750985
3.315066 6.789135 -2.780727
3.714375 7.684560 -4.579997
3.476518 7.432991 -3.521235
3.637801 8.340467 -4.273171
3.633627 5.981279 -4.145867
3.637317 5.976839 -4.161909
3.596066 5.964388 -3.979725
3.649266 6.044510 -4.217638
3.524879 5.955649 -3.665928
3.373674 5.903167 -2.997840
3.426247 5.926772 -3.230377
3.313554 6.075305 -2.741113
3.485582 6.485734 -3.517401
3.489084 6.527813 -3.534760
3.495930 6.553806 -3.566101
3.433628 6.558323 -3.292028
3.307592 6.578460 -2.738097
3.590504 6.835200 -3.995449
3.519536 6.827438 -3.682661
3.617421 6.905267 -4.117181
3.486863 6.866201 -3.540610
3.486331 6.895037 -3.539599
3.570315 7.055346 -3.916731
3.527388 7.024323 -3.726315
3.528447 7.068589 -3.733021
3.570325 7.130824 -3.920259
3.521847 7.093291 -3.705109
3.526579 7.115578 -3.726971
3.573900 7.138906 -3.936372
3.547882 7.184961 -3.823958
3.550920 7.228179 -3.839324
3.482747 7.389605 -3.546655
3.471201 7.413074 -3.496909
3.483988 7.464806 -3.555588
3.735224 7.711380 -4.673020
3.712879 7.704266 -4.574318
3.655200 8.398064 -4.352426
3.564547 8.455010 -3.955964
3.613939 5.946255 -4.057577
3.438474 5.945425 -3.285064
3.441365 5.958657 -3.298405
3.485576 6.540110 -3.519888
3.495469 6.561480 -3.564427
3.336738 6.774937 -2.875482
3.611784 7.095028 -4.101130
3.521840 7.090137 -3.704932
3.526592 7.120113 -3.727237
3.590702 7.180629 -4.012268
3.446434 5.946126 -3.320139
3.567896 7.084519 -3.907431
3.651942 8.375667 -4.337047
3.403696 5.907671 -3.130214
3.429149 6.863690 -3.286411
3.546940 7.201749 -3.820583
3.625637 6.888966 -4.152598
3.628676 6.925030 -4.167645
3.294677 5.898561 -2.649848
3.694765 5.925580 -4.412451
6.117896 6.047914 -4.673519
6.091648 6.027745 -4.679939
6.022189 6.037324 -4.694938
5.855450 6.044940 -4.731431
6.292094 6.682271 -4.615088
5.373486 6.031898 -4.838023
5.357331 6.035233 -4.841477
5.263848 6.038314 -4.861974
5.262108 6.038600 -4.862349
6.016785 6.879041 -4.669520
6.018723 6.867945 -4.669444
5.947747 6.852909 -4.685555
5.997690 6.872007 -4.673949
5.942321 6.841306 -4.687118
5.964047 6.849665 -4.682067
5.063941 6.025772 -4.906411
6.349207 7.509928 -4.576342
5.807139 6.896083 -4.715168
5.788340 6.902002 -4.719122
6.329990 7.513948 -4.580449
6.344273 7.518517 -4.577157
6.344273 7.518517 -4.577157
5.776908 6.922955 -4.720978
6.316018 7.531894 -4.582959
5.485617 6.607225 -4.795132
6.295607 7.546909 -4.586981
6.303417 7.534737 -4.585645
5.478376 6.639738 -4.795700
5.749395 6.956613 -4.725976
6.279699 7.561685 -4.590019
5.462315 6.636798 -4.799332
5.461274 6.642060 -4.799394
5.459355 6.658180 -4.799307
5.722600 6.962910 -4.731680
6.224211 7.560470 -4.602282
6.242434 7.559580 -4.598295
5.435066 6.651499 -4.804870
6.211028 7.566000 -4.605011
6.185760 7.569799 -4.610457
6.148888 7.589306 -4.617964
6.074473 7.578735 -4.634693
6.173081 7.753595 -4.607440
5.957081 7.564078 -4.661018
5.980771 7.577222 -4.655383
6.127021 7.759035 -4.617416
6.145732 7.765232 -4.613098
5.943225 7.567353 -4.663967
6.101747 7.762142 -4.622886
6.125663 7.766957 -4.617465
6.111293 7.772541 -4.620454
5.377193 6.891025 -4.810048
6.056079 7.748201 -4.633388
6.091139 7.773508 -4.624863
6.100938 7.769017 -4.622847
6.101308 7.770050 -4.622733
6.050009 7.759580 -4.634365
6.056443 7.757823 -4.633003
5.318390 6.894601 -4.822889
6.005919 7.768142 -4.643807
6.020981 7.766275 -4.640548
6.011239 7.766381 -4.642692
4.596997 6.024059 -5.009336
5.306187 6.909914 -4.825094
5.988250 7.767001 -4.647737
6.014924 7.768148 -4.641824
4.576531 6.017771 -5.014044
5.939639 7.772259 -4.658280
4.543549 6.012234 -5.021485
4.542958 6.015845 -5.021501
4.527848 6.023123 -5.024600
4.527943 6.018930 -5.024711
4.551263 6.049423 -5.018610
5.887433 7.773552 -4.669740
4.479169 6.027213 -5.035195
4.507266 6.041830 -5.028543
4.537586 6.058178 -5.021347
5.144602 6.869386 -4.861973
5.151228 6.856335 -4.860926
5.848199 7.747886 -4.679195
5.123985 6.861880 -4.866752
5.140467 6.869315 -4.862886
5.805272 7.746907 -4.688683
4.458047 6.028609 -5.039804
4.470118 6.036008 -5.036911
5.113802 6.872077 -4.868673
5.104836 6.886179 -4.870203
5.787364 7.753910 -4.692406
5.791808 7.761293 -4.691194
5.072284 6.872013 -4.877821
5.058763 6.878140 -4.880607
5.080205 6.864973 -4.876299
5.073318 6.870955 -4.877627
5.754096 7.777124 -4.699002
5.773894 7.773518 -4.694754
5.786742 7.770486 -4.692020
4.393564 6.039348 -5.053670
5.034113 6.874567 -4.886150
5.047348 6.867264 -4.883465
5.063231 6.863671 -4.880080
5.737051 7.790314 -4.702340
5.753128 7.787748 -4.698879
4.377050 6.031882 -5.057544
4.398358 6.057843 -5.052030
5.003561 6.869343 -4.893046
5.017518 6.875747 -4.889770
5.017683 6.875240 -4.889749
5.721051 7.801546 -4.705510
4.363206 6.036357 -5.060453
4.353725 6.042879 -5.062335
4.991797 6.891410 -4.894940
4.988849 6.885760 -4.895769
5.461217 7.501771 -4.772229
5.466840 7.496345 -4.771162
5.709987 7.809685 -4.707690
5.691230 7.819564 -4.711510
4.310129 6.022581 -5.072582
4.960278 6.889023 -4.901959
4.973909 6.896667 -4.898715
4.985426 6.892329 -4.896315
5.422179 7.511398 -4.780525
5.448712 7.522195 -4.774339
5.678191 7.861536 -4.713056
5.669891 7.841854 -4.715507
5.697217 7.853598 -4.709115
4.665150 6.530946 -4.978298
4.951296 6.894533 -4.903764
4.947142 6.902953 -4.904414
5.430637 7.531215 -4.778036
5.665766 7.880495 -4.715194
4.288153 6.043675 -5.076756
4.651983 6.550762 -4.980572
4.667852 6.555614 -4.976923
4.907429 6.898655 -4.913299
4.915098 6.891103 -4.911848
4.937552 6.898165 -4.906678
4.940983 6.895542 -4.906004
5.387127 7.535150 -4.787497
5.403241 7.539943 -4.783795
5.416746 7.543242 -4.780716
5.656771 7.892018 -4.716811
4.256698 6.035275 -5.083952
4.255534 6.029036 -5.084405
4.260276 6.055444 -5.082526
4.657470 6.576825 -4.978539
4.910549 6.928128 -4.911679
4.915274 6.914471 -4.911070
5.371808 7.550804 -4.790377
5.378640 7.528943 -4.789563
4.194350 6.009844 -5.098492
4.230610 6.018928 -5.090216
4.644896 6.593464 -4.980784
4.882163 6.926037 -4.917999
4.895771 6.930179 -4.914870
4.893171 6.921619 -4.915713
5.352155 7.558329 -4.794469
4.207751 6.031669 -5.094849
4.205478 6.016208 -5.095839
4.233730 6.052588 -5.088464
4.625946 6.618621 -4.984163
4.632211 6.609912 -4.983058
4.881142 6.943085 -4.917685
4.883630 6.941934 -4.917173
4.172653 6.016690 -5.103055
4.184570 6.023022 -5.100229
4.868598 6.954514 -4.920087
4.136807 6.027965 -5.110595
4.129707 6.016584 -5.112520
4.859578 6.977937 -4.921334
4.851031 7.002351 -4.922445
4.114170 6.011611 -5.116099
4.127839 6.015790 -5.112957
4.122313 6.005272 -5.114507
4.592397 6.674957 -4.989773
4.082266 6.006767 -5.123282
4.095335 6.020979 -5.119953
4.844389 7.084127 -4.921323
4.867826 7.110038 -4.915341
4.866288 7.104681 -4.915849
4.068207 6.019826 -5.125966
5.126779 7.745463 -4.838204
5.151256 7.747884 -4.832736
5.089962 7.754939 -4.846016
4.477919 6.882344 -5.008437
4.832653 7.419425 -4.913310
5.056414 7.766745 -4.853034
5.060188 7.747269 -4.852818
5.036642 7.760771 -4.857579
4.400763 6.875617 -5.025649
4.366081 6.869023 -5.033498
4.368799 6.865812 -5.033000
4.381376 6.876373 -5.029896
4.390235 6.882946 -5.027736
4.401976 6.863378 -5.025768
4.348723 6.873918 -5.037167
4.364341 6.882292 -5.033461
4.373101 6.891057 -5.031254
4.354024 6.905334 -5.035006
4.894932 7.757576 -4.888899
4.893949 7.742344 -4.889597
4.247757 6.875556 -5.059359
4.232926 6.867748 -5.062873
4.218108 6.877438 -5.065831
4.609703 7.477077 -4.960604
4.833847 7.828238 -4.900123
4.026577 6.594431 -5.116973
4.209736 6.888417 -5.067328
4.225687 6.875513 -5.064222
4.592773 7.499286 -4.963632
4.603720 7.504653 -4.961051
4.192373 6.892182 -5.071034
4.185253 6.874270 -5.073169
4.589688 7.522596 -4.963575
4.128653 6.870840 -5.085747
4.567667 7.542842 -4.967786
4.115605 6.858165 -5.089022
4.086895 6.863323 -5.095184
4.099424 6.872074 -5.092147
4.567347 7.615660 -4.965555
4.069108 6.869992 -5.098892
4.029231 6.872887 -5.107585
4.052704 6.879984 -5.102190
4.046149 6.955233 -5.101255
4.043358 6.939147 -5.102378
5.827274 6.037254 -4.737881
6.033018 6.874575 -4.666085
5.981393 6.869955 -4.677605
5.983933 6.855944 -4.677487
5.158601 6.043265 -4.885005
5.536830 6.593218 -4.784293
5.502712 6.587964 -4.791975
6.290636 7.558555 -4.587708
6.289418 7.569079 -4.587644
6.229545 7.771267 -4.594442
6.194020 7.744495 -4.603115
6.207268 7.768814 -4.599428
6.243357 7.798164 -4.590549
6.139596 7.733130 -4.615465
5.982714 7.579045 -4.654897
6.075968 7.761950 -4.628572
5.303877 6.915392 -4.825429
6.029280 7.766804 -4.638704
5.955540 7.782759 -4.654445
5.955540 7.782759 -4.654445
5.955540 7.782759 -4.654445
5.048457 6.880737 -4.882795
5.470916 7.494439 -4.770324
5.481863 7.513848 -4.767299
4.930038 6.910367 -4.907947
4.179983 6.013187 -5.101551
4.173107 6.016011 -5.102976
4.137460 6.018124 -5.110763
4.867467 7.108813 -4.915459
4.849893 7.112429 -4.919216
4.491863 6.887903 -5.005190
5.097695 7.748188 -4.844526
4.844146 7.801972 -4.898684
4.555906 7.547221 -4.970239
4.557712 7.542093 -4.970003
4.028550 6.957579 -5.105058
5.148310 6.035853 -4.887506
5.046142 6.022957 -4.910422
5.536188 6.590966 -4.784506
5.508812 6.612384 -4.789859
5.512599 6.584696 -4.789900
5.473323 6.667935 -4.795922
6.266285 7.724349 -4.587831
6.123203 7.627007 -4.622431
6.119164 7.617074 -4.623635
6.276625 7.781268 -4.583755
6.090875 7.607808 -4.630160
6.268662 7.806866 -4.584700
6.061146 7.607930 -4.636705
5.926161 7.557145 -4.668049
6.062369 7.764082 -4.631500
5.153793 6.888709 -4.859337
4.840298 6.568656 -4.938519
5.862146 7.776916 -4.675204
5.482865 7.491762 -4.767777
