ply
format ascii 1.0
element vertex 1710
property float x
property float y
property float z
end_header
4.235259 6.302722 -2.372722
4.225318 6.281220 -2.375889
4.011362 6.456763 -2.414663
4.000683 6.425472 -2.418442
3.881176 6.553784 -2.438707
3.851391 6.560661 -2.444914
3.815211 6.580385 -2.451929
3.821038 6.561932 -2.451502
3.788587 6.582846 -2.457646
3.788410 6.573156 -2.458131
3.761337 6.591823 -2.463201
3.772330 6.572293 -2.461692
3.720612 6.586795 -2.472351
3.687813 6.631452 -2.477478
3.521677 6.770901 -2.507442
3.497302 6.790707 -2.511868
3.497302 6.790707 -2.511868
3.461361 6.806354 -2.519018
3.429738 6.824598 -2.525104
3.412177 6.831542 -2.528630
3.398663 6.819958 -2.532123
5.024748 5.863569 -2.220041
5.005557 5.880254 -2.223476
4.994318 5.884470 -2.225744
4.969510 5.896783 -2.230610
4.934247 5.906280 -2.237895
4.878656 5.935216 -2.248737
4.867786 5.959599 -2.249995
4.867786 5.959599 -2.249995
4.839649 5.941391 -2.256995
4.238423 6.327934 -2.370868
4.229634 6.347129 -2.371909
4.225122 6.312667 -2.374484
4.002939 6.478749 -2.415496
3.984267 6.460844 -2.420409
3.985504 6.456342 -2.420346
3.898879 6.543271 -2.435314
3.865976 6.583359 -2.440674
3.849712 6.566139 -2.445029
3.823642 6.588788 -2.449696
3.834506 6.593711 -2.447089
3.809380 6.594282 -2.452566
3.787225 6.591022 -2.457568
3.738608 6.630534 -2.466396
3.620875 6.747563 -2.486792
3.537815 6.789244 -2.503063
3.524372 6.789839 -2.505980
3.524372 6.789839 -2.505980
3.474399 6.806244 -2.516168
3.450855 6.840795 -2.519734
3.434350 6.849494 -2.522948
3.394803 6.843034 -2.531906
5.044296 5.882281 -2.214899
5.023798 5.882418 -2.219382
4.984125 5.891586 -2.227648
4.951759 5.912959 -2.233752
4.927711 5.919667 -2.238710
4.909540 5.947227 -2.241421
4.883872 5.957138 -2.246586
4.870525 5.957717 -2.249482
4.242276 6.365711 -2.368285
4.230977 6.339348 -2.371973
4.214307 6.339003 -2.375640
4.028563 6.476798 -2.409974
4.014735 6.506145 -2.411651
3.989313 6.507551 -2.417154
3.966018 6.490724 -2.423030
3.911241 6.540843 -2.432719
3.853979 6.589042 -2.443040
3.823428 6.608580 -2.448831
3.819110 6.587967 -2.450726
3.816195 6.591749 -2.451190
3.717046 6.701918 -2.467832
3.637022 6.750698 -2.483111
3.620658 6.776491 -2.485507
3.505068 6.801357 -2.509677
3.445065 6.865719 -2.519854
3.435263 6.856316 -2.522434
3.396004 6.887507 -2.529596
3.395309 6.874967 -2.530325
5.191760 5.833658 -2.184843
5.026053 5.899550 -2.218099
5.026053 5.899550 -2.218099
5.026053 5.899550 -2.218099
4.996465 5.915659 -2.223838
4.968582 5.915472 -2.229952
4.980103 5.929482 -2.226784
4.960548 5.930542 -2.231018
4.960364 5.934728 -2.230865
4.935788 5.939451 -2.236030
4.948707 5.935162 -2.233398
4.919910 5.962260 -2.238457
4.901776 5.961502 -2.242464
4.901776 5.961502 -2.242464
4.886199 5.965168 -2.245706
4.873639 5.972953 -2.248099
4.234461 6.383383 -2.369183
4.218124 6.369598 -2.373395
3.992481 6.544372 -2.414765
3.981827 6.514658 -2.418466
3.991402 6.520577 -2.416096
3.967884 6.522408 -2.421163
3.873158 6.599534 -2.438357
3.862855 6.595028 -2.440821
3.873692 6.584185 -2.438946
3.819100 6.661699 -2.447334
3.819100 6.661699 -2.447334
3.747643 6.733220 -2.459690
3.638861 6.796405 -2.480604
3.597260 6.789938 -2.490013
3.570971 6.794203 -2.495574
3.545245 6.799038 -2.500985
3.424808 6.906618 -2.522408
3.394915 6.902697 -2.529135
5.235363 5.837051 -2.175138
5.210079 5.833201 -2.180852
4.993347 5.941892 -2.223313
4.903174 5.993292 -2.240694
4.901214 5.993046 -2.241135
4.884884 5.991465 -2.244783
4.222990 6.430391 -2.369531
4.139369 6.458127 -2.386567
3.991842 6.543680 -2.414937
3.753023 6.744329 -2.458000
3.703760 6.784261 -2.466950
3.671131 6.782836 -2.474162
3.656049 6.790792 -2.477098
3.616279 6.799235 -2.485420
3.600855 6.808725 -2.488360
3.422743 6.954000 -2.520679
3.408088 6.932012 -2.524900
5.262199 5.837927 -2.169220
5.042414 5.915000 -2.213805
5.008148 5.948570 -2.219764
4.953829 5.984810 -2.229991
4.907388 6.042886 -2.237488
4.894312 6.014138 -2.241675
4.242880 6.468168 -2.363436
4.229838 6.454285 -2.366931
4.176164 6.479407 -2.377529
3.775685 6.761088 -2.452266
3.709484 6.788459 -2.465504
3.690863 6.784611 -2.469759
3.674334 6.796645 -2.472825
3.636621 6.806768 -2.480618
3.391402 6.996333 -2.525593
5.325056 5.823511 -2.156118
5.313404 5.835299 -2.158127
5.131676 5.907669 -2.194594
4.909882 6.062644 -2.236032
4.913548 6.073195 -2.234743
4.902812 6.041431 -2.238557
4.237514 6.520789 -2.362188
4.235767 6.479615 -2.364466
4.235166 6.480364 -2.364563
4.224555 6.471731 -2.367285
3.781486 6.777402 -2.450244
3.756233 6.782405 -2.455544
3.747272 6.782640 -2.457496
3.737730 6.777338 -2.459830
3.716969 6.798944 -2.463382
3.696939 6.798678 -2.467781
3.687255 6.809334 -2.469411
3.410493 7.005210 -2.521003
5.192176 5.896873 -2.181841
5.188542 5.915979 -2.181758
4.966738 6.022903 -2.225410
4.943322 6.040300 -2.229737
4.922392 6.059480 -2.233438
4.932798 6.053830 -2.231419
4.897387 6.056643 -2.239045
4.251846 6.522999 -2.358947
3.842589 6.790400 -2.436264
3.837894 6.777201 -2.437900
3.804490 6.773801 -2.445372
3.777945 6.793776 -2.450266
3.771369 6.801268 -2.451361
3.761676 6.786951 -2.454143
5.401433 5.834365 -2.138891
5.384814 5.840624 -2.142243
5.384814 5.840624 -2.142243
5.165382 5.947170 -2.185394
5.157462 5.945933 -2.187185
5.140264 5.949102 -2.190805
4.307034 6.533727 -2.346367
4.267576 6.540128 -2.354714
4.261259 6.544384 -2.355901
4.238579 6.529035 -2.361575
4.186134 6.542136 -2.372458
4.097112 6.663024 -2.386388
3.876884 6.791162 -2.428718
3.875730 6.790944 -2.428981
3.854476 6.783491 -2.433979
3.864005 6.789734 -2.431605
3.868432 6.782627 -2.430962
3.820817 6.791832 -2.440966
3.839066 6.783425 -2.437357
3.818493 6.782191 -2.441919
3.390646 7.104668 -2.520771
3.395935 7.071093 -2.521159
5.453611 5.824745 -2.127908
5.448387 5.821523 -2.129200
5.426517 5.836350 -2.133307
5.182490 5.949264 -2.181551
4.293888 6.570635 -2.347547
4.278267 6.552562 -2.351800
4.291036 6.543043 -2.349442
4.274525 6.559511 -2.352300
4.123021 6.663933 -2.380672
4.119886 6.672432 -2.380967
3.994333 6.778574 -2.403577
3.964829 6.783218 -2.409824
3.938955 6.787114 -2.415311
3.893347 6.797598 -2.424816
3.885666 6.787874 -2.426947
3.891152 6.781176 -2.426053
3.896645 6.783034 -2.424765
3.875254 6.783699 -2.429419
3.830978 6.795376 -2.438578
3.392658 7.143493 -2.518543
3.396467 7.103627 -2.519544
5.485883 5.831914 -2.120510
5.492926 5.840192 -2.118587
5.470550 5.828032 -2.124047
5.466229 5.821902 -2.125275
5.256284 5.964327 -2.164696
5.225763 5.954065 -2.171853
5.018181 6.079720 -2.211528
4.898898 6.175584 -2.233238
4.879411 6.165061 -2.237990
4.373641 6.563247 -2.330421
4.336920 6.581179 -2.337638
4.316378 6.580094 -2.342186
4.301152 6.573121 -2.345842
4.298429 6.567318 -2.346706
4.287019 6.568732 -2.349139
4.284250 6.564355 -2.349947
4.292601 6.567274 -2.347984
4.124823 6.704160 -2.378425
4.111617 6.707396 -2.381168
3.988737 6.785569 -2.404480
3.977139 6.798511 -2.406424
3.950238 6.805930 -2.411974
3.942311 6.802883 -2.413850
3.926043 6.809375 -2.417114
3.928059 6.803992 -2.416920
3.922993 6.798921 -2.418263
3.907141 6.786951 -2.422286
3.919634 6.802241 -2.418846
3.393885 7.140323 -2.518420
5.338364 5.956044 -2.147102
5.282739 5.959107 -2.159143
5.292622 5.954921 -2.157171
5.278582 5.947220 -2.160600
5.249814 5.957043 -2.166449
4.912860 6.190963 -2.229472
4.354733 6.582599 -2.333671
4.342043 6.581418 -2.336505
4.344477 6.571952 -2.336407
4.320701 6.585590 -2.340987
4.309151 6.582236 -2.343670
4.294231 6.571857 -2.347416
4.215277 6.626652 -2.362184
4.120150 6.730921 -2.378216
4.018533 6.813391 -2.396674
4.007745 6.796173 -2.399829
3.986135 6.823979 -2.403281
3.964679 6.822470 -2.408050
3.954514 6.836607 -2.409625
3.945240 6.817565 -2.412533
3.943016 6.823380 -2.412752
3.945612 6.812088 -2.412704
3.933216 6.814276 -2.415318
3.394839 7.207307 -2.515127
5.545138 5.837526 -2.107275
5.352427 5.961114 -2.143789
5.316532 5.971976 -2.151150
5.323877 5.969865 -2.149638
4.392643 6.593712 -2.324857
4.370721 6.595234 -2.329588
4.355807 6.589008 -2.333141
4.341518 6.588030 -2.336315
4.297232 6.594294 -2.345726
4.035279 6.826487 -2.392403
4.016757 6.817213 -2.396887
4.001361 6.846041 -2.398931
3.972039 6.847133 -2.405302
3.976462 6.844097 -2.404474
3.970217 6.832854 -2.406359
3.954196 6.821693 -2.410381
3.944669 6.828878 -2.412137
3.949619 6.834016 -2.410816
3.403927 7.234861 -2.511868
3.389878 7.225516 -2.515375
3.403822 7.208709 -2.513095
3.383116 7.199221 -2.518067
5.590176 5.841691 -2.097220
5.455201 5.912507 -2.123519
5.382422 5.941775 -2.138110
5.355549 5.963337 -2.143002
4.884906 6.246290 -2.233047
4.439156 6.580862 -2.315263
4.412921 6.593749 -2.320415
4.385821 6.594551 -2.326313
4.375727 6.593739 -2.328561
4.056234 6.853618 -2.386565
4.041328 6.838022 -2.390548
4.006807 6.852184 -2.397456
4.021360 6.848894 -2.394420
4.000432 6.865925 -2.398219
3.988239 6.845508 -2.401829
3.986952 6.860715 -2.401411
3.960654 6.849159 -2.407702
3.396359 7.248690 -2.512889
3.398251 7.272216 -2.511392
3.382412 7.213517 -2.517563
3.382412 7.213517 -2.517563
3.382412 7.213517 -2.517563
5.636082 5.838547 -2.087311
5.546761 5.865510 -2.105631
5.443304 5.919262 -2.125813
4.917555 6.251245 -2.225668
4.910526 6.284058 -2.225697
4.881924 6.277828 -2.232248
4.533681 6.575532 -2.294807
4.526227 6.552604 -2.297495
4.530803 6.543406 -2.296916
4.527997 6.549036 -2.297272
4.493365 6.598095 -2.302597
4.384427 6.591861 -2.326742
4.117250 6.831239 -2.374233
4.031437 6.879979 -2.390782
4.023758 6.881410 -2.392398
4.021046 6.877059 -2.393192
3.998329 6.883159 -2.397886
3.974584 6.860565 -2.404127
3.401683 7.328206 -2.508063
3.389441 7.296180 -2.512218
3.393171 7.304104 -2.511036
3.390726 7.257179 -2.513732
5.691070 5.837267 -2.075328
5.596919 5.901491 -2.092990
5.587579 5.901539 -2.095033
5.554627 5.903006 -2.102182
5.535208 5.899928 -2.106576
5.450041 5.940132 -2.123377
5.106529 6.169364 -2.188053
4.914986 6.307267 -2.223652
4.564853 6.574230 -2.288040
4.166960 6.844157 -2.362751
4.030985 6.915129 -2.389263
4.013010 6.904572 -2.393685
4.000944 6.886045 -2.397181
3.395556 7.280709 -2.511591
5.744352 5.832956 -2.063857
5.708990 5.843912 -2.071097
5.646959 5.875854 -2.083211
5.612036 5.910087 -2.089283
5.569369 5.913688 -2.098462
5.548789 5.915572 -2.102882
4.942346 6.325772 -2.216808
4.904801 6.325729 -2.225032
4.882630 6.342763 -2.229103
4.610298 6.562969 -2.278606
4.582851 6.599583 -2.282931
4.570014 6.600290 -2.285710
4.559928 6.594913 -2.288166
4.544092 6.603875 -2.291222
4.525381 6.603849 -2.295321
4.187342 6.839653 -2.358495
4.182498 6.848860 -2.359132
4.040050 6.944552 -2.385923
4.035734 6.943697 -2.386908
4.030883 6.960789 -2.387183
4.017879 6.934971 -2.391220
4.012521 6.952972 -2.391564
4.013914 6.905668 -2.393437
5.684646 5.858492 -2.075757
5.669366 5.886679 -2.077806
5.636101 5.911601 -2.083944
5.607839 5.933376 -2.089130
5.587829 5.914982 -2.094359
5.563943 5.934566 -2.098689
5.093987 6.246452 -2.187251
4.966146 6.318047 -2.211951
4.928752 6.356104 -2.218389
4.669893 6.566366 -2.265398
4.661092 6.561507 -2.267550
4.645509 6.579245 -2.270145
4.583425 6.611862 -2.282240
4.554682 6.610788 -2.288584
4.526371 6.621204 -2.294305
4.510424 6.612105 -2.298217
4.362968 6.777990 -2.322872
4.332956 6.782212 -2.329250
4.273635 6.816933 -2.340643
4.265989 6.801930 -2.343008
4.236753 6.802164 -2.349401
4.041345 6.989987 -2.383547
4.020296 6.988419 -2.388229
4.021923 6.984502 -2.388053
5.690108 5.906955 -2.072330
5.659669 5.901371 -2.079253
4.944943 6.372870 -2.214071
4.904134 6.381740 -2.222600
4.671973 6.583372 -2.264160
4.665153 6.575387 -2.266021
4.644455 6.597602 -2.269531
4.611320 6.606590 -2.276374
4.588835 6.614525 -2.280933
4.569234 6.621233 -2.284917
4.542687 6.629589 -2.290346
4.451219 6.720879 -2.306175
4.342477 6.770583 -2.327701
4.298722 6.827512 -2.334662
4.250536 6.830906 -2.345058
4.238718 6.855355 -2.346521
4.220547 6.834658 -2.351454
4.030656 7.017533 -2.384620
3.395097 7.424554 -2.505069
5.677156 5.913350 -2.074872
4.958349 6.392596 -2.210227
4.908347 6.443708 -2.218824
4.770522 6.517814 -2.245596
4.738641 6.564807 -2.250414
4.690043 6.591284 -2.259838
4.690353 6.576511 -2.260451
4.601880 6.629529 -2.277385
4.489675 6.744938 -2.296645
4.453323 6.767439 -2.303570
4.360174 6.775641 -2.323592
4.361028 6.774846 -2.323442
4.365030 6.792744 -2.321741
4.284552 6.831259 -2.337593
4.253090 6.883640 -2.342072
4.021502 7.059874 -2.384676
3.461102 7.456107 -2.489161
3.412904 7.469546 -2.499098
3.401786 7.438331 -2.502970
5.695938 5.927050 -2.070128
5.678355 5.963580 -2.072297
5.620392 5.964443 -2.084951
4.881610 6.480034 -2.223007
4.797714 6.541229 -2.238563
4.803492 6.515797 -2.238468
4.771753 6.539331 -2.244336
4.748951 6.573524 -2.247755
4.749630 6.566087 -2.247949
4.713573 6.583460 -2.255045
4.696763 6.596050 -2.258147
4.521407 6.729888 -2.290389
4.445581 6.770970 -2.305103
4.309228 6.847902 -2.331422
4.234501 6.917212 -2.344597
4.197451 6.949860 -2.351207
4.199564 6.933416 -2.351502
4.024196 7.069793 -2.383629
4.021934 7.094178 -2.383002
4.011171 7.042120 -2.387755
3.500060 7.451894 -2.480823
3.487949 7.452873 -2.483430
3.470419 7.465074 -2.486708
3.476622 7.455932 -2.485770
3.424317 7.496819 -2.495343
3.431717 7.482576 -2.494378
5.744643 5.964272 -2.057748
5.701851 5.965131 -2.067080
5.682770 5.974522 -2.070826
5.680301 5.973079 -2.071433
5.110258 6.337195 -2.179509
4.911288 6.475419 -2.216720
4.894619 6.510983 -2.218733
4.867656 6.508592 -2.224748
4.857864 6.525317 -2.226123
4.501859 6.766678 -2.292976
4.489397 6.780149 -2.295085
4.468387 6.774868 -2.299929
4.327246 6.871197 -2.326404
4.218987 6.948600 -2.346549
4.052181 7.113101 -2.375506
4.052181 7.113101 -2.375506
4.026919 7.106939 -2.381322
4.035017 7.121698 -2.378870
4.022175 7.117710 -2.381866
3.515120 7.454571 -2.477402
3.452731 7.477464 -2.490011
3.367998 7.539579 -2.505708
5.777694 5.981920 -2.049697
5.760456 5.965916 -2.054209
5.717537 5.980673 -2.062929
5.720881 5.973005 -2.062549
5.703901 5.983173 -2.065800
5.702095 5.974065 -2.066615
5.093578 6.400667 -2.180240
5.094398 6.372762 -2.181345
4.881025 6.537119 -2.220507
4.844999 6.555600 -2.227546
4.602568 6.760651 -2.271198
4.588614 6.769678 -2.273838
4.570673 6.776114 -2.277471
4.549344 6.765670 -2.282623
4.529249 6.769213 -2.286860
4.261162 7.010923 -2.334444
4.259144 6.977197 -2.336438
4.258909 6.982533 -2.336244
4.234634 6.975130 -2.341901
4.076119 7.118183 -2.370030
4.076119 7.118183 -2.370030
4.035013 7.139781 -2.378038
4.016051 7.119639 -2.383118
3.629867 7.456598 -2.452179
3.567816 7.467022 -2.465288
3.563542 7.468373 -2.466162
3.563030 7.464206 -2.466466
3.533118 7.468911 -2.472800
3.514084 7.458781 -2.477435
3.472874 7.484107 -2.485294
5.789401 6.008170 -2.045925
5.779125 5.997203 -2.048680
5.771436 5.978595 -2.051221
5.758318 5.987582 -2.053680
5.093482 6.430444 -2.178890
4.910818 6.531999 -2.214218
4.823799 6.644698 -2.228087
4.632943 6.760931 -2.264533
4.582546 6.771627 -2.275077
4.573196 6.770554 -2.277174
4.269089 7.035215 -2.331589
4.257670 7.020239 -2.334779
4.233675 7.011827 -2.340422
4.202894 7.025233 -2.346545
4.051497 7.170565 -2.373011
4.034896 7.195518 -2.375497
4.017122 7.182078 -2.380009
4.014358 7.140734 -2.382517
4.021851 7.179203 -2.379105
3.654910 7.455849 -2.446729
3.612069 7.451479 -2.456312
3.560632 7.470557 -2.466699
3.530125 7.499504 -2.472047
5.787170 6.024717 -2.045651
5.769432 6.000084 -2.050670
5.742679 5.998367 -2.056608
5.122056 6.488149 -2.169976
5.110958 6.448426 -2.174235
5.101312 6.457401 -2.175934
5.103678 6.486834 -2.174061
4.838447 6.671300 -2.223654
4.797626 6.699644 -2.231288
4.793263 6.709405 -2.231795
4.712088 6.769823 -2.246791
4.687858 6.786135 -2.251346
4.672713 6.787866 -2.254583
4.254790 7.091091 -2.332148
4.244018 7.049805 -2.336408
4.220690 7.040080 -2.341964
4.051850 7.209933 -2.371121
3.706994 7.438849 -2.436105
3.579017 7.490785 -2.461741
3.349369 7.655645 -2.504444
3.356454 7.650345 -2.503136
5.783961 6.045115 -2.045415
5.728021 6.030499 -2.058339
5.133246 6.510742 -2.166485
5.121003 6.480268 -2.170569
5.112839 6.481002 -2.172323
4.895467 6.676287 -2.210937
4.816408 6.708417 -2.226772
4.755980 6.778714 -2.236769
4.714139 6.775112 -2.246098
4.684137 6.783671 -2.252274
4.696712 6.778726 -2.249748
4.682472 6.770813 -2.253231
4.672473 6.781779 -2.254916
4.248077 7.117368 -2.332408
4.242163 7.089621 -2.334981
4.228949 7.100398 -2.337379
4.226505 7.068929 -2.339363
4.230365 7.077651 -2.338116
4.217059 7.088551 -2.340528
4.059573 7.251885 -2.367498
4.039506 7.237188 -2.372569
4.019742 7.272724 -2.375262
4.005809 7.243693 -2.379649
4.011693 7.232558 -2.378873
3.773250 7.442258 -2.421438
3.765095 7.440080 -2.423324
3.753721 7.414694 -2.426984
3.726268 7.453952 -2.431189
3.507610 7.619804 -2.471439
3.392453 7.694502 -2.493220
3.353336 7.670175 -2.502906
5.759229 6.060866 -2.050106
5.144882 6.525556 -2.163254
5.145995 6.509140 -2.163766
5.128250 6.502717 -2.167948
5.134789 6.496843 -2.166787
5.123423 6.502140 -2.169032
5.018085 6.558526 -2.189505
4.786404 6.786090 -2.229766
4.741527 6.789472 -2.239439
4.741126 6.771628 -2.240348
4.718501 6.790384 -2.244440
4.703393 6.771856 -2.248602
4.234207 7.127098 -2.334998
4.091029 7.237479 -2.361272
4.038715 7.302633 -2.369729
4.029528 7.301745 -2.371782
4.026803 7.299961 -2.372461
4.024818 7.271123 -2.374223
4.013856 7.266384 -2.376842
3.925366 7.366452 -2.391615
3.928610 7.349951 -2.391664
3.928610 7.349951 -2.391664
3.874256 7.427582 -2.399993
3.874253 7.432441 -2.399770
3.843452 7.418817 -2.407143
3.808980 7.434408 -2.413975
3.793522 7.439782 -2.417113
3.769887 7.433365 -2.422584
3.556010 7.605827 -2.461483
3.553244 7.613904 -2.461717
3.509476 7.659760 -2.469191
3.502845 7.665880 -2.470362
3.456650 7.671419 -2.480223
3.441381 7.658494 -2.484162
3.395541 7.706188 -2.492005
3.395541 7.706188 -2.492005
5.148484 6.543236 -2.161652
5.161397 6.520388 -2.159876
5.154979 6.543955 -2.160196
5.140112 6.526045 -2.164277
5.147860 6.514393 -2.163116
5.132897 6.525454 -2.165884
5.120481 6.528262 -2.168474
4.931286 6.711734 -2.201461
4.903892 6.722369 -2.206970
4.909744 6.737134 -2.205009
4.808357 6.787898 -2.224875
4.790544 6.778780 -2.229197
4.226819 7.168426 -2.334713
4.229346 7.147699 -2.335114
4.224202 7.138963 -2.336643
4.053113 7.332834 -2.365186
4.040048 7.332401 -2.368067
4.033435 7.332216 -2.369524
4.037123 7.326663 -2.368972
4.010877 7.337207 -2.374234
4.023465 7.337002 -2.371487
4.010977 7.335403 -2.374295
4.010198 7.337885 -2.374352
3.993656 7.310802 -2.379221
3.987294 7.322320 -2.380084
3.833672 7.456964 -2.407529
3.834310 7.439284 -2.408203
3.831466 7.437782 -2.408895
3.822282 7.441095 -2.410754
3.792673 7.443382 -2.417133
3.594965 7.613060 -2.452619
3.530678 7.673038 -2.463937
3.529391 7.669723 -2.464371
3.497731 7.660217 -2.471742
3.452707 7.687146 -2.480363
3.442033 7.679200 -2.483066
5.185684 6.563283 -2.152582
5.187985 6.561394 -2.152165
5.171900 6.540037 -2.156671
5.160936 6.550619 -2.158585
5.151668 6.543761 -2.160930
5.138667 6.533637 -2.164244
4.943536 6.722433 -2.198285
4.942354 6.736543 -2.197895
4.847398 6.789915 -2.216233
4.824650 6.799706 -2.220764
4.806131 6.790703 -2.225234
4.775978 6.783628 -2.232163
4.246981 7.225026 -2.327692
4.235820 7.212511 -2.330712
4.226871 7.202525 -2.333132
4.038884 7.368734 -2.366649
4.049185 7.356559 -2.364954
4.049185 7.356559 -2.364954
4.049185 7.356559 -2.364954
4.047282 7.370781 -2.364716
4.022444 7.371686 -2.370114
4.034077 7.343538 -2.368862
4.009796 7.366303 -2.373131
3.994071 7.371630 -2.376330
3.978187 7.357316 -2.380467
3.888391 7.426574 -2.396944
3.876460 7.432183 -2.399299
3.852052 7.452896 -2.403691
3.800235 7.481917 -2.413702
3.784222 7.495347 -2.416591
3.601805 7.650516 -2.449396
3.565790 7.660593 -2.456820
3.513845 7.700493 -2.466359
3.486683 7.709074 -2.471912
3.471192 7.726829 -2.474488
5.165219 6.558264 -2.157295
4.972564 6.748375 -2.190734
4.934816 6.745441 -2.199136
4.840338 6.800659 -2.217284
4.816525 6.808634 -2.222132
4.247488 7.263467 -2.325811
4.247183 7.248156 -2.326583
4.061836 7.385930 -2.360831
4.018970 7.391674 -2.369954
3.990443 7.400133 -2.375812
3.799821 7.542417 -2.411008
3.664754 7.655327 -2.435389
3.647431 7.660355 -2.438951
3.635560 7.659670 -2.441583
3.593791 7.668280 -2.450334
3.594309 7.657464 -2.450718
3.577557 7.667568 -2.453922
3.554070 7.679599 -2.458512
3.569328 7.697287 -2.454356
3.496365 7.745385 -2.468120
5.232105 6.604705 -2.140509
5.221707 6.587521 -2.143577
5.216172 6.596325 -2.144384
5.207542 6.578267 -2.147105
5.182567 6.568930 -2.153004
4.990809 6.748167 -2.186747
4.950954 6.761842 -2.194846
4.940875 6.784337 -2.196018
4.925498 6.766616 -2.200201
4.868502 6.830616 -2.209737
4.885080 6.808962 -2.207103
4.868981 6.818801 -2.210176
4.868981 6.818801 -2.210176
4.857487 6.808204 -2.213181
4.844090 6.838781 -2.214707
4.833199 6.819227 -2.217993
4.256217 7.287947 -2.322772
4.235857 7.275664 -2.327797
4.222523 7.244530 -2.332150
4.089996 7.380420 -2.354917
4.013604 7.462821 -2.367854
4.013604 7.462821 -2.367854
4.013604 7.462821 -2.367854
3.962497 7.500930 -2.377291
3.784719 7.597439 -2.411782
3.788650 7.607058 -2.410478
3.721879 7.650558 -2.423099
3.701021 7.657300 -2.427356
3.678632 7.658529 -2.432203
3.689918 7.655603 -2.429866
5.283587 6.604991 -2.129221
5.262492 6.597277 -2.134196
5.253264 6.599751 -2.136103
5.257542 6.591410 -2.135550
5.243852 6.600516 -2.138129
5.229143 6.591455 -2.141767
5.225112 6.593663 -2.142549
5.215024 6.590922 -2.144884
5.043833 6.742587 -2.175392
5.002888 6.784077 -2.182449
4.980393 6.791209 -2.187047
4.986320 6.765736 -2.186922
4.991981 6.755743 -2.186142
4.946356 6.813586 -2.193471
4.935708 6.799583 -2.196448
4.880743 6.855986 -2.205888
4.884352 6.852134 -2.205275
4.249992 7.305381 -2.323333
4.195603 7.303750 -2.335320
3.795029 7.625106 -2.408250
3.764987 7.651960 -2.413593
3.743371 7.650481 -2.418395
3.749213 7.650362 -2.417121
3.725071 7.662284 -2.421860
3.702870 7.661132 -2.426774
3.702677 7.659890 -2.426874
3.478384 7.845013 -2.467471
5.324921 6.601844 -2.120313
5.300787 6.614429 -2.125020
5.290744 6.606617 -2.127578
5.279398 6.598084 -2.130456
5.266006 6.608675 -2.132902
5.269458 6.603153 -2.132400
5.231401 6.604454 -2.140674
4.994149 6.809799 -2.183179
4.967247 6.831558 -2.188069
4.960570 6.835270 -2.189360
4.916488 6.833307 -2.199104
4.923812 6.857473 -2.196387
4.894825 6.880006 -2.201698
4.893410 6.875742 -2.202205
4.280698 7.356218 -2.314268
4.266330 7.330848 -2.318583
4.243093 7.325396 -2.323922
3.844078 7.663114 -2.395759
3.725019 7.671538 -2.421445
3.454798 7.889843 -2.470573
5.387139 6.594520 -2.107025
5.349207 6.606576 -2.114777
5.346690 6.585493 -2.116299
5.343398 6.590898 -2.116771
5.324935 6.611151 -2.119882
5.305115 6.614148 -2.124085
5.319811 6.599839 -2.121525
5.294909 6.606622 -2.126666
5.279456 6.599394 -2.130383
5.016549 6.808648 -2.178326
5.006308 6.859265 -2.178239
4.972608 6.869528 -2.185146
4.929280 6.907584 -2.192883
4.919228 6.883306 -2.196203
4.906459 6.909596 -2.197788
4.886237 6.896351 -2.202826
4.257945 7.353529 -2.319375
4.246990 7.376153 -2.320732
4.114457 7.465724 -2.345633
3.968844 7.591909 -2.371713
3.902016 7.661607 -2.383140
3.882828 7.655642 -2.387617
3.875416 7.656065 -2.389220
3.851148 7.646008 -2.394998
3.802103 7.655862 -2.405285
3.484043 7.896081 -2.463881
5.428426 6.564408 -2.099370
5.421658 6.595985 -2.099398
5.421129 6.601143 -2.099276
5.413602 6.576793 -2.102046
5.410494 6.600934 -2.101615
5.401756 6.577856 -2.104591
5.390508 6.602271 -2.105931
5.377486 6.584971 -2.109579
5.358986 6.600268 -2.112926
5.371282 6.597416 -2.110364
5.349930 6.596087 -2.115102
5.343324 6.610026 -2.115906
5.330924 6.614665 -2.118409
5.317100 6.602476 -2.121997
5.282367 6.640899 -2.127835
5.201868 6.708307 -2.142361
5.036617 6.883951 -2.170464
4.993089 6.893661 -2.179550
4.967601 6.897223 -2.184968
4.909950 6.911874 -2.196919
4.894778 6.925416 -2.199618
4.321392 7.406044 -2.303062
4.310827 7.382735 -2.306448
4.288408 7.391278 -2.310965
4.274988 7.375549 -2.314629
4.266363 7.355964 -2.317419
4.257955 7.369139 -2.318654
4.166368 7.498633 -2.332750
4.125542 7.503772 -2.341454
3.942341 7.649958 -2.374845
3.922535 7.666434 -2.378423
3.481161 7.922791 -2.463282
3.481161 7.922791 -2.463282
5.470313 6.588659 -2.089080
5.474490 6.578293 -2.088642
5.453240 6.587278 -2.092882
5.453598 6.581657 -2.093063
5.438143 6.599011 -2.095649
5.424780 6.606049 -2.098251
5.402419 6.602286 -2.103321
5.407199 6.605443 -2.102129
5.384960 6.592560 -2.107593
5.365811 6.609050 -2.111027
5.378832 6.599611 -2.108610
5.367102 6.619549 -2.110261
5.242930 6.717752 -2.132933
5.203852 6.744197 -2.140274
5.174545 6.764550 -2.145755
5.113108 6.817408 -2.156776
5.075947 6.838756 -2.163931
5.076835 6.838346 -2.163756
5.039986 6.884114 -2.169719
5.028907 6.895146 -2.171637
5.024847 6.906802 -2.171990
5.028907 6.895146 -2.171637
5.024847 6.906802 -2.171990
4.947618 6.977407 -2.185652
4.938692 6.964075 -2.188221
4.906034 6.954327 -2.195822
4.920725 6.943886 -2.193085
4.317842 7.408577 -2.303723
4.302819 7.400093 -2.307404
4.291317 7.420273 -2.308993
4.281202 7.385506 -2.312809
4.274901 7.412874 -2.312929
4.190516 7.521320 -2.326417
4.155445 7.534012 -2.333513
4.153139 7.526376 -2.334369
4.141486 7.534180 -2.336562
4.114134 7.522922 -2.343071
4.017574 7.635156 -2.359050
3.994778 7.654394 -2.363157
3.958340 7.663954 -2.370697
3.958930 7.671848 -2.370204
3.939331 7.673511 -2.374419
3.924265 7.671555 -2.377809
3.910663 7.656936 -2.381461
3.484767 8.039844 -2.457103
3.449886 8.008001 -2.466208
5.532966 6.596354 -2.075004
5.504749 6.580922 -2.081894
5.485720 6.589352 -2.085674
5.490153 6.582782 -2.085005
5.469020 6.606017 -2.088564
5.454327 6.600827 -2.092020
5.439658 6.606538 -2.094970
5.425498 6.606305 -2.098082
5.414088 6.619989 -2.099951
5.390863 6.621017 -2.104990
5.250531 6.725733 -2.130901
5.231337 6.769569 -2.133086
5.216554 6.759683 -2.136779
5.183064 6.789425 -2.142744
5.197917 6.764271 -2.140649
5.134988 6.811285 -2.152267
5.099219 6.841881 -2.158691
5.056438 6.879712 -2.166319
5.004085 6.932207 -2.175367
4.920121 7.005868 -2.190364
4.895092 6.980234 -2.197026
4.899360 7.018894 -2.194311
4.446853 7.373455 -2.277086
4.358458 7.424946 -2.294074
4.377779 7.430774 -2.289575
4.357536 7.445030 -2.293351
4.331485 7.442287 -2.299183
4.319722 7.425747 -2.302521
4.320106 7.423175 -2.302555
4.293065 7.415368 -2.308836
4.273683 7.448895 -2.311538
4.187733 7.528069 -2.326715
4.166453 7.574907 -2.329219
4.174510 7.549888 -2.328607
4.128108 7.591560 -2.336850
4.108338 7.591483 -2.341183
4.039717 7.668765 -2.352653
4.016185 7.667918 -2.357846
3.987054 7.674237 -2.363935
3.959569 7.678095 -2.369776
3.492258 8.011169 -2.456783
5.580419 6.553694 -2.066576
5.551580 6.590775 -2.071185
5.509122 6.594276 -2.080322
5.518184 6.598554 -2.078140
5.500565 6.582687 -2.082730
5.489163 6.602454 -2.084316
5.475108 6.613443 -2.086889
5.456847 6.610046 -2.091044
5.444440 6.615371 -2.093516
5.436828 6.621183 -2.094916
5.316658 6.729959 -2.116225
5.264203 6.744285 -2.127053
5.211608 6.784943 -2.136699
5.160094 6.814774 -2.146608
5.142613 6.848883 -2.148865
5.111883 6.863703 -2.154913
5.105683 6.869796 -2.155990
5.088129 6.861726 -2.160207
4.996851 6.992474 -2.174177
4.981855 6.975331 -2.178250
4.946234 7.031168 -2.183480
4.947674 7.013298 -2.183987
4.918079 7.025886 -2.189889
4.388304 7.436486 -2.287007
4.353899 7.443374 -2.294224
4.338034 7.452465 -2.297280
4.308847 7.449473 -2.303810
4.201687 7.561140 -2.322137
4.142884 7.623192 -2.332158
4.059771 7.674366 -2.348004
4.022509 7.705842 -2.354715
4.024926 7.697320 -2.354578
4.001657 7.699249 -2.359585
3.982858 7.689239 -2.364163
3.994661 7.710582 -2.360595
3.476434 8.112713 -2.455573
3.477455 8.111192 -2.455420
5.600011 6.553207 -2.062308
5.558228 6.598625 -2.069367
5.533595 6.605773 -2.074433
5.530531 6.607470 -2.075026
5.537841 6.599114 -2.073810
5.350386 6.733955 -2.108654
5.335445 6.750061 -2.111185
5.226815 6.805462 -2.132424
5.212928 6.812236 -2.135154
5.097334 6.894226 -2.156694
5.000896 6.998399 -2.173018
4.961503 7.031740 -2.180110
4.953440 7.046237 -2.181208
4.916987 7.037056 -2.189615
4.420733 7.432816 -2.280074
4.375734 7.447312 -2.289261
4.358852 7.457057 -2.292510
4.076142 7.718808 -2.342372
4.053399 7.703624 -2.348052
4.037930 7.735263 -2.349983
4.038736 7.725068 -2.350276
4.009283 7.734262 -2.356303
3.986850 7.730742 -2.361378
3.461154 8.153944 -2.457021
3.484165 8.092609 -2.454806
5.715567 6.493936 -2.039730
5.631265 6.592517 -2.053654
5.629237 6.553739 -2.055883
5.611652 6.580651 -2.058495
5.585451 6.587131 -2.063935
5.561946 6.612186 -2.067929
5.558466 6.613173 -2.068645
5.556959 6.602378 -2.069473
5.541804 6.610599 -2.072413
5.527419 6.623790 -2.074956
5.357307 6.761411 -2.105875
5.318799 6.784513 -2.113244
5.140346 6.907349 -2.146670
5.109097 6.921469 -2.152864
5.085343 6.968534 -2.155899
5.044582 6.979682 -2.164313
4.984155 7.034542 -2.175020
4.915287 7.104597 -2.186877
4.913568 7.104655 -2.187251
4.896256 7.107451 -2.190914
4.898734 7.078567 -2.191701
4.077954 7.762316 -2.339972
4.055839 7.744799 -2.345622
4.027779 7.750632 -2.351499
3.480671 8.167720 -2.452113
5.744213 6.553548 -2.030712
5.669160 6.558273 -2.046931
5.625809 6.601598 -2.054430
5.612472 6.604331 -2.057225
5.417026 6.726136 -2.094420
5.417026 6.726136 -2.094420
5.362968 6.795416 -2.103069
5.366893 6.790887 -2.102418
5.341743 6.800452 -2.107486
5.099921 6.999562 -2.151278
4.967428 7.075529 -2.176796
4.944883 7.100616 -2.180579
4.896191 7.149226 -2.189004
4.881449 7.118596 -2.193643
4.156716 7.731113 -2.324160
4.090868 7.789327 -2.335901
4.070436 7.776865 -2.340949
4.073542 7.788811 -2.339719
4.063351 7.768123 -2.342903
4.042039 7.776289 -2.347195
3.495142 8.236481 -2.445778
3.487195 8.201399 -2.449134
3.450579 8.235282 -2.455593
5.650789 6.602752 -2.048907
5.442875 6.778965 -2.086327
5.421388 6.776766 -2.091134
5.408257 6.799225 -2.092975
5.384905 6.800080 -2.098050
5.124102 6.991920 -2.146334
5.085310 7.031908 -2.152988
4.983231 7.087265 -2.172795
4.983829 7.086733 -2.172689
4.951440 7.143027 -2.177190
4.908719 7.183371 -2.184689
4.902370 7.180293 -2.186221
4.301064 7.632230 -2.297100
4.301064 7.632230 -2.297100
4.171986 7.760036 -2.319484
4.098805 7.822280 -2.332645
4.112045 7.801707 -2.330693
4.068809 7.832539 -2.338742
4.055791 7.799525 -2.343113
3.476600 8.271843 -2.448211
3.453128 8.264953 -2.453668
3.442231 8.262198 -2.456182
3.446496 8.257149 -2.455480
5.728240 6.582408 -2.032881
5.543217 6.715123 -2.067291
5.475439 6.778269 -2.079227
5.435464 6.789027 -2.087487
5.103508 7.054601 -2.147959
5.091969 7.070586 -2.149749
5.029607 7.106411 -2.161757
4.994419 7.117454 -2.168955
4.938200 7.188357 -2.178003
4.512454 7.500552 -2.256868
4.498309 7.539340 -2.258180
4.393638 7.649338 -2.276039
4.417172 7.596851 -2.273302
4.417186 7.596812 -2.273300
4.363307 7.654807 -2.282429
4.335957 7.661372 -2.288117
4.340689 7.659533 -2.287165
4.340598 7.653585 -2.287459
4.282992 7.680274 -2.298846
4.276842 7.681265 -2.300148
4.276842 7.681265 -2.300148
4.226835 7.750968 -2.307890
4.162737 7.778467 -2.320661
4.123015 7.829542 -2.327009
4.081325 7.857575 -2.334848
4.061039 7.850799 -2.339603
4.063357 7.843084 -2.339451
3.520120 8.281171 -2.438251
3.538177 8.294254 -2.433693
3.502144 8.289689 -2.441795
3.499455 8.280362 -2.442813
3.480554 8.290212 -2.446499
3.459023 8.278568 -2.451751
3.459340 8.278912 -2.451665
5.523802 6.754114 -2.069748
5.489156 6.789965 -2.075685
5.467151 6.812300 -2.079476
4.964960 7.177314 -2.172651
4.919460 7.236048 -2.179912
4.545936 7.539630 -2.247737
4.507440 7.575777 -2.254503
4.473863 7.626513 -2.259521
4.447237 7.621158 -2.265598
4.398700 7.664566 -2.274229
4.414896 7.655991 -2.271077
4.351876 7.678063 -2.283862
4.326858 7.711074 -2.287822
4.291166 7.718359 -2.295302
4.246717 7.764033 -2.302934
4.263835 7.724415 -2.301009
4.198516 7.805567 -2.311578
4.106536 7.867919 -2.328851
4.070285 7.887155 -2.335904
3.585075 8.278269 -2.424159
3.559988 8.292539 -2.428996
3.538142 8.306813 -2.433123
3.523631 8.297660 -2.436722
3.506816 8.304458 -2.440092
3.491382 8.310439 -2.443197
3.488634 8.312819 -2.443689
5.691019 6.717855 -2.034797
5.640812 6.708529 -2.046221
5.503895 6.806072 -2.071715
4.939805 7.244231 -2.175079
4.905296 7.287762 -2.180632
4.874001 7.293650 -2.187215
4.721893 7.413167 -2.215024
4.571633 7.537436 -2.242210
4.532187 7.612635 -2.247386
4.533441 7.614217 -2.247039
4.456596 7.656646 -2.261915
4.423674 7.668057 -2.268599
4.423042 7.662230 -2.269006
4.381104 7.673035 -2.277693
4.391722 7.676653 -2.275201
4.262190 7.796109 -2.298069
4.279648 7.755863 -2.296098
4.232936 7.795267 -2.304514
4.096347 7.927805 -2.328325
4.086333 7.929473 -2.330442
4.071008 7.930047 -2.333771
3.736669 8.232932 -2.393047
3.643077 8.296559 -2.410614
3.625308 8.290344 -2.414792
3.585617 8.291364 -2.423437
3.561126 8.310555 -2.427917
3.541087 8.322109 -2.431774
3.522271 8.313771 -2.436279
3.505906 8.327596 -2.439226
5.708453 6.719501 -2.030903
5.683485 6.712290 -2.036703
5.662194 6.742786 -2.039962
5.646197 6.755544 -2.042877
5.632982 6.761019 -2.045520
5.096850 7.192542 -2.143066
5.082200 7.163849 -2.147595
4.972375 7.250406 -2.167662
4.932176 7.294455 -2.174438
4.927083 7.299755 -2.175309
4.890639 7.319669 -2.182373
4.891971 7.312142 -2.182428
4.855817 7.332628 -2.189402
4.573101 7.598884 -2.239059
4.522693 7.661461 -2.247217
4.495080 7.650537 -2.253767
4.478531 7.660425 -2.256937
4.441169 7.680323 -2.264203
4.445626 7.667421 -2.263821
4.403171 7.682582 -2.272421
4.383048 7.698418 -2.276098
4.246837 7.829242 -2.299906
4.254717 7.811435 -2.299000
4.222772 7.820532 -2.305577
3.752022 8.245401 -2.389111
3.711248 8.294947 -2.395759
3.709366 8.259356 -2.397810
3.665749 8.300014 -2.405490
3.647583 8.308958 -2.409057
3.631632 8.294160 -2.413231
3.588717 8.307192 -2.422030
5.676750 6.755533 -2.036187
5.610247 6.805811 -2.048436
5.588384 6.804502 -2.053285
5.119208 7.187327 -2.138409
5.119208 7.187327 -2.138409
5.119208 7.187327 -2.138409
5.082813 7.229649 -2.144432
5.068733 7.198464 -2.148951
5.030174 7.247195 -2.155152
4.949147 7.351159 -2.168110
4.884439 7.361048 -2.181826
4.817876 7.410445 -2.194129
4.784234 7.418650 -2.201119
4.615474 7.608047 -2.229357
4.592956 7.619246 -2.233773
4.548373 7.663651 -2.241493
4.533677 7.660965 -2.244835
4.513926 7.661177 -2.249151
4.480409 7.679294 -2.255657
4.475452 7.660943 -2.257587
4.461143 7.673090 -2.260162
4.351136 7.816553 -2.277648
4.264734 7.855970 -2.294756
4.246466 7.850030 -2.299030
4.226716 7.873218 -2.302288
4.227870 7.875524 -2.301929
4.201441 7.901888 -2.306503
4.103801 8.014522 -2.322701
4.114357 7.989104 -2.321559
4.105522 8.006733 -2.322682
4.091344 8.004684 -2.325881
3.849418 8.181504 -2.370723
3.832390 8.234518 -2.372011
3.817611 8.253602 -2.374369
3.762166 8.266241 -2.385930
3.730381 8.299726 -2.391349
3.682878 8.295685 -2.401938
3.627033 8.321956 -2.412959
5.098042 7.256243 -2.139872
5.069991 7.261910 -2.145754
5.032007 7.301260 -2.152261
4.846141 7.414853 -2.187736
4.862509 7.409940 -2.184377
4.639059 7.634643 -2.222968
4.647470 7.618243 -2.221881
4.585254 7.644159 -2.234313
4.576480 7.655832 -2.235698
4.537296 7.657379 -2.244208
4.245901 7.899241 -2.296888
4.134194 8.004023 -2.316528
4.079282 8.034228 -2.327163
4.058329 8.055456 -2.330774
3.817931 8.287708 -2.372729
3.821984 8.282529 -2.372080
3.792635 8.299735 -2.377715
3.801435 8.294871 -2.376012
3.808170 8.298421 -2.374373
3.771173 8.294294 -2.382665
3.754786 8.297029 -2.386129
3.722423 8.295846 -2.393270
3.704846 8.302874 -2.396796
5.693661 6.820410 -2.029496
5.085105 7.293210 -2.141003
4.829819 7.521628 -2.186394
4.696084 7.638835 -2.210286
4.670310 7.655082 -2.215183
4.658091 7.653315 -2.217941
4.604620 7.646264 -2.229975
4.559429 7.667768 -2.238882
4.254821 7.930604 -2.293491
4.208045 7.968499 -2.301990
4.208045 7.968499 -2.301990
4.201311 7.983033 -2.302795
4.108731 8.109459 -2.317250
4.108512 8.113311 -2.317120
4.108512 8.113311 -2.317120
4.093060 8.073227 -2.322350
4.089273 8.118127 -2.321112
4.065612 8.066051 -2.328691
4.065710 8.063963 -2.328766
3.890424 8.273113 -2.357525
3.860760 8.282907 -2.363570
3.818721 8.295199 -2.372211
3.829860 8.287346 -2.370133
3.814201 8.304194 -2.372787
3.785289 8.295417 -2.379522
3.731633 8.317738 -2.390245
5.777073 6.827466 -2.010904
5.750181 6.820973 -2.017093
5.757112 6.822462 -2.015507
5.735135 6.817151 -2.020564
5.106549 7.363332 -2.133079
5.071698 7.324505 -2.142498
5.021920 7.391623 -2.150310
5.001784 7.384847 -2.155032
4.712843 7.654515 -2.205894
4.676839 7.663023 -2.213387
4.649654 7.642472 -2.220287
4.237895 7.974372 -2.295182
4.153989 8.087358 -2.308356
4.074085 8.153968 -2.322788
4.059370 8.119333 -2.327605
4.066180 8.108869 -2.326596
3.950803 8.259048 -2.344949
3.942894 8.280517 -2.345693
3.942894 8.280517 -2.345693
3.898001 8.295581 -2.354831
3.891789 8.288817 -2.356503
3.860422 8.299966 -2.362859
3.864048 8.294606 -2.362312
3.834317 8.305778 -2.368308
3.820064 8.312874 -2.371103
3.802470 8.304042 -2.375363
3.772821 8.324902 -2.380896
5.721620 6.861915 -2.021463
5.728239 6.830437 -2.021462
5.126027 7.401933 -2.127036
5.087521 7.353841 -2.137683
5.043644 7.398605 -2.145231
5.006006 7.434166 -2.151836
5.006441 7.437292 -2.151597
4.980403 7.447224 -2.156842
4.954793 7.482532 -2.160825
4.766163 7.662007 -2.193872
4.739630 7.657536 -2.199889
4.734806 7.656599 -2.200989
4.709858 7.649552 -2.206777
4.691257 7.654266 -2.210633
4.119390 8.195593 -2.310950
4.087842 8.190311 -2.318102
4.054173 8.195112 -2.325255
4.062258 8.210159 -2.322791
4.060384 8.213224 -2.323061
4.063112 8.208764 -2.322669
4.031361 8.182328 -2.330839
4.013698 8.206243 -2.333606
3.975876 8.251862 -2.339789
3.962660 8.266682 -2.342001
3.923168 8.296973 -2.349255
3.936832 8.292024 -2.346491
3.900955 8.292357 -2.354332
3.920595 8.293796 -2.349965
5.735907 6.884668 -2.017286
5.140490 7.420053 -2.123034
5.114669 7.409307 -2.129184
5.020194 7.461938 -2.147451
4.997674 7.469265 -2.152045
4.802786 7.665038 -2.185712
4.772298 7.662918 -2.192487
4.747696 7.674474 -2.197343
4.734268 7.673625 -2.200323
4.239252 8.068160 -2.290567
4.119784 8.189756 -2.311132
4.119784 8.189756 -2.311132
4.103488 8.221149 -2.313256
4.074164 8.220747 -2.319696
4.046446 8.243870 -2.324702
3.981231 8.291704 -2.336782
3.958523 8.292768 -2.341706
3.923814 8.297613 -2.349084
3.940326 8.298006 -2.345450
3.938151 8.310682 -2.345343
5.748574 6.915777 -2.013080
5.164920 7.443144 -2.116621
5.144975 7.439227 -2.121169
5.127252 7.421330 -2.125874
5.095074 7.405507 -2.133650
5.079925 7.441224 -2.135323
5.031944 7.487278 -2.143711
5.035237 7.481447 -2.143258
5.037355 7.509268 -2.141513
5.008250 7.483234 -2.149086
4.878813 7.676837 -2.168519
4.848523 7.672416 -2.175356
4.811979 7.687208 -2.182678
4.793568 7.676572 -2.187200
4.792521 7.664360 -2.187991
4.088376 8.253759 -2.315064
4.093822 8.252854 -2.313913
4.100020 8.262115 -2.312129
4.090403 8.274183 -2.313680
4.056478 8.251367 -2.322160
4.006960 8.285633 -2.331427
4.005465 8.288733 -2.331612
5.175999 7.461004 -2.113372
5.164432 7.459353 -2.115982
5.158687 7.457500 -2.117325
5.154643 7.453443 -2.118397
5.146482 7.451869 -2.120257
5.125251 7.440091 -2.125449
5.082057 7.480124 -2.133065
5.049073 7.506560 -2.139072
5.020510 7.511640 -2.145093
4.921553 7.677255 -2.159140
4.887080 7.693013 -2.165964
4.861101 7.690327 -2.171777
4.834615 7.688936 -2.177642
4.114440 8.277734 -2.308252
4.074532 8.282146 -2.316789
4.054396 8.303914 -2.320197
4.041027 8.283862 -2.324048
5.756305 7.006107 -2.007228
5.267693 7.438458 -2.094329
5.215249 7.465498 -2.104570
5.197164 7.460269 -2.108771
5.176629 7.464478 -2.113074
5.181424 7.466432 -2.111934
5.163743 7.461542 -2.116032
5.144246 7.444172 -2.121101
5.064716 7.532028 -2.134473
5.038071 7.534221 -2.140208
4.994637 7.639860 -2.144856
4.909275 7.697590 -2.160893
4.871758 7.726124 -2.167795
4.850937 7.710318 -2.173083
4.852288 7.706861 -2.172946
4.271945 8.210791 -2.276841
4.083715 8.301141 -2.313904
5.792580 6.987720 -2.000130
5.303735 7.431664 -2.086749
5.217581 7.464055 -2.104125
5.217581 7.464055 -2.104125
5.212136 7.474388 -2.104842
5.193986 7.471046 -2.108971
4.936007 7.719334 -2.154037
4.918508 7.738073 -2.157007
4.887784 7.750108 -2.163181
4.867902 7.731795 -2.168379
4.291839 8.271343 -2.269696
4.282091 8.240789 -2.273237
4.064697 8.394780 -2.313757
4.072263 8.399503 -2.311883
4.060321 8.383136 -2.315252
5.295534 7.426718 -2.088773
4.934588 7.766482 -2.152177
4.918864 7.804000 -2.153893
4.903341 7.776654 -2.158552
4.899754 7.781445 -2.159117
4.881173 7.762553 -2.164056
4.882211 7.759702 -2.163960
4.876058 7.737458 -2.166332
4.309040 8.282740 -2.265404
4.289711 8.291853 -2.269218
4.271922 8.277973 -2.273752
4.104827 8.384021 -2.305464
5.342790 7.426655 -2.078427
4.887342 7.769153 -2.162401
4.895498 7.797954 -2.159289
4.341758 8.310458 -2.256963
4.323887 8.300179 -2.261350
4.306861 8.308182 -2.264710
4.292729 8.309074 -2.267764
5.780629 7.144049 -1.995550
5.368117 7.422135 -2.073088
5.117872 7.709285 -2.114671
4.923457 7.838748 -2.151288
4.922364 7.828339 -2.152006
4.891656 7.841868 -2.158108
4.400635 8.307846 -2.244189
4.379931 8.304365 -2.248883
4.362055 8.314687 -2.252323
4.325366 8.315147 -2.260337
4.312875 8.318262 -2.262929
4.307735 8.321950 -2.263885
5.797942 7.169696 -1.990578
5.257043 7.593982 -2.089501
4.916738 7.900595 -2.149912
4.448053 8.292601 -2.234506
4.437308 8.304784 -2.236299
4.426641 8.300429 -2.238835
4.383735 8.316098 -2.247510
4.365027 8.322474 -2.251314
4.345315 8.318974 -2.255792
4.329498 8.321290 -2.259149
5.403521 7.513348 -2.061135
5.372674 7.535254 -2.066882
5.337772 7.579600 -2.072484
5.332856 7.580431 -2.073522
5.303811 7.583360 -2.079748
5.279769 7.583980 -2.084985
5.240076 7.623407 -2.091862
5.204535 7.701639 -2.096044
5.184576 7.734705 -2.098893
5.166789 7.722680 -2.103342
5.115028 7.791013 -2.111531
5.090829 7.811413 -2.115892
4.475702 8.312144 -2.227552
4.463395 8.305840 -2.230537
4.441806 8.314683 -2.234858
4.426118 8.320382 -2.238031
4.404331 8.319714 -2.242833
4.388852 8.325454 -2.245959
4.381124 8.330901 -2.247401
5.395997 7.552958 -2.060959
5.378547 7.574215 -2.063802
5.351426 7.599073 -2.068597
5.336481 7.621389 -2.070843
5.308695 7.624718 -2.076774
5.285808 7.644963 -2.080855
5.294138 7.663529 -2.078176
5.208993 7.729351 -2.093792
5.205790 7.753419 -2.093385
5.203301 7.755716 -2.093825
5.151625 7.796652 -2.103257
5.159273 7.819743 -2.100519
5.109418 7.836263 -2.110677
5.080131 7.880340 -2.115061
4.921957 7.989887 -2.144658
4.902804 7.964031 -2.150043
4.532137 8.316958 -2.214971
4.511359 8.316608 -2.219537
4.490625 8.324458 -2.223716
4.479331 8.327091 -2.226069
4.462150 8.318421 -2.230231
4.447081 8.323291 -2.233307
5.507736 7.496747 -2.039076
5.483295 7.537698 -2.042543
5.466425 7.563106 -2.045068
5.426746 7.581429 -2.052914
5.360955 7.639460 -2.064651
5.326725 7.629935 -2.072586
5.314206 7.666789 -2.073631
5.288610 7.676510 -2.078788
5.218495 7.775881 -2.089569
5.158113 7.831984 -2.100209
5.087925 7.862847 -2.114160
4.889047 7.997383 -2.151520
4.615971 8.303465 -2.197232
4.575565 8.309801 -2.205789
4.568156 8.319382 -2.206971
4.559704 8.320633 -2.208764
4.517766 8.325504 -2.217724
4.508272 8.321392 -2.219993
4.495544 8.337092 -2.222058
5.739935 7.374328 -1.993861
5.514579 7.533371 -2.035891
5.495885 7.561905 -2.038671
5.481196 7.584812 -2.040834
5.450610 7.591062 -2.047245
5.422779 7.596857 -2.053073
5.399929 7.620413 -2.056992
5.380651 7.635529 -2.060518
5.386829 7.605816 -2.060533
4.940442 8.048635 -2.137905
4.910734 8.043280 -2.144658
4.668276 8.307469 -2.185593
4.671907 8.302488 -2.185027
4.637224 8.307464 -2.192394
4.612632 8.328341 -2.196818
4.591965 8.321984 -2.201637
4.573634 8.332886 -2.205149
4.584431 8.329342 -2.202948
4.569177 8.338141 -2.205883
4.552757 8.325694 -2.210052
4.538526 8.328595 -2.213036
4.540315 8.325677 -2.212778
4.526963 8.328527 -2.215571
5.733092 7.349412 -1.996506
5.732729 7.386251 -1.994889
5.721921 7.381091 -1.997494
5.534517 7.537309 -2.031343
5.543148 7.570724 -2.027915
5.508519 7.584587 -2.034861
5.486428 7.622284 -2.037963
5.463188 7.619977 -2.043159
5.440070 7.617316 -2.048344
5.431756 7.627054 -2.049716
5.089828 7.937063 -2.110326
4.923415 8.113150 -2.138664
4.921469 8.118637 -2.138837
4.921469 8.118637 -2.138837
4.921469 8.118637 -2.138837
4.921469 8.118637 -2.138837
4.921469 8.118637 -2.138837
4.880369 8.144269 -2.146658
4.733606 8.298233 -2.171711
4.731197 8.300662 -2.172127
4.714374 8.295013 -2.176071
4.709761 8.300856 -2.176812
4.695012 8.306881 -2.179765
4.690779 8.312110 -2.180451
4.673879 8.323220 -2.183640
4.673010 8.322977 -2.183842
4.648169 8.322360 -2.189311
4.656629 8.315788 -2.187761
4.634755 8.328319 -2.191974
4.601144 8.338889 -2.198848
4.600654 8.341063 -2.198856
4.584661 8.349750 -2.201958
5.744880 7.380707 -1.992484
5.749387 7.405431 -1.990359
5.670210 7.457005 -2.005324
5.523353 7.597403 -2.031022
5.504377 7.629992 -2.033677
5.479905 7.625425 -2.039247
5.453724 7.632886 -2.044637
4.899683 8.172870 -2.141112
4.899683 8.172870 -2.141112
4.899683 8.172870 -2.141112
4.874572 8.181882 -2.146196
4.867362 8.186656 -2.147555
4.867362 8.186656 -2.147555
4.798821 8.295306 -2.157563
4.758618 8.300770 -2.166116
4.759895 8.300936 -2.165829
4.743368 8.308960 -2.169079
4.749669 8.305454 -2.167861
4.712702 8.314327 -2.175548
4.710715 8.315180 -2.175944
4.694919 8.321920 -2.179093
4.697335 8.321095 -2.178602
4.675959 8.320362 -2.183317
4.674065 8.321457 -2.183681
4.660047 8.327368 -2.186479
4.659475 8.327857 -2.186582
4.656709 8.331163 -2.187035
4.641590 8.339681 -2.189954
4.640999 8.339809 -2.190078
4.622540 8.337750 -2.194215
4.618828 8.344397 -2.194722
5.714762 7.481071 -1.994459
5.714268 7.482157 -1.994517
5.687951 7.478372 -2.000455
5.649514 7.544055 -2.005848
5.653377 7.528158 -2.005734
5.650528 7.542542 -2.005696
5.619560 7.560540 -2.011649
5.541800 7.598255 -2.026942
5.523470 7.621704 -2.029877
5.489051 7.639780 -2.036583
4.916965 8.207174 -2.135748
4.836969 8.275261 -2.150132
4.796850 8.315916 -2.157046
4.782329 8.302919 -2.160825
4.765652 8.313229 -2.164002
4.751603 8.321156 -2.166714
4.749434 8.320668 -2.167212
4.732726 8.316136 -2.171079
4.730206 8.317536 -2.171567
4.717019 8.322342 -2.174233
4.714033 8.323846 -2.174819
4.694451 8.341957 -2.178272
4.680009 8.328192 -2.182069
4.682226 8.328020 -2.181592
5.648726 7.588562 -2.003972
4.910008 8.245384 -2.135512
4.888960 8.280204 -2.138518
4.888790 8.299804 -2.137653
4.864120 8.277267 -2.144094
4.833400 8.310009 -2.149313
4.812923 8.325605 -2.153080
4.778441 8.331163 -2.160376
4.770662 8.324311 -2.162395
4.745101 8.333275 -2.167580
4.689088 8.362500 -2.178502
4.920717 8.280438 -2.131553
4.897706 8.309868 -2.135237
4.904615 8.287416 -2.134758
4.882094 8.312714 -2.138525
4.863060 8.323094 -2.142215
4.831700 8.338255 -2.148386
4.812456 8.346515 -2.152220
4.797545 8.334142 -2.156055
4.966866 8.289255 -2.121040
4.920498 8.285654 -2.131361
4.751661 8.418123 -2.162237
5.735491 7.601608 -1.984370
4.997689 8.306086 -2.113515
4.981975 8.334588 -2.115644
4.924645 8.383332 -2.125955
4.903700 8.410793 -2.129278
4.890616 8.400002 -2.132640
4.876791 8.394184 -2.135936
4.864954 8.399925 -2.138264
4.861304 8.376763 -2.140129
4.865394 8.387754 -2.138728
5.136076 8.235077 -2.086477
5.027866 8.304881 -2.106961
4.928466 8.408204 -2.123973
4.883560 8.429059 -2.132848
4.881479 8.447238 -2.132467
4.864243 8.414770 -2.137736
4.866306 8.447509 -2.135777
4.841453 8.437781 -2.141668
5.129558 8.307769 -2.084558
5.115932 8.309196 -2.087476
5.116543 8.309030 -2.087350
5.093091 8.288960 -2.093410
5.050462 8.315900 -2.101506
5.019475 8.360796 -2.106225
5.005647 8.377317 -2.108492
4.993560 8.397572 -2.110207
4.950628 8.425797 -2.118310
4.929223 8.436997 -2.122482
4.912290 8.444191 -2.125859
4.896712 8.470498 -2.128059
4.862120 8.476789 -2.135345
5.145453 8.322708 -2.080389
5.134214 8.317768 -2.083078
5.116694 8.327532 -2.086465
5.097768 8.324319 -2.090758
5.080885 8.332797 -2.094065
5.050522 8.372533 -2.098885
5.042929 8.386231 -2.099918
5.050522 8.372533 -2.098885
5.050522 8.372533 -2.098885
4.971061 8.431697 -2.113564
4.974217 8.427614 -2.113060
4.939126 8.451374 -2.119651
4.912808 8.474633 -2.124344
5.207139 8.318793 -2.067060
5.166554 8.329044 -2.075476
5.178335 8.320416 -2.073294
5.155244 8.324403 -2.078167
5.141281 8.329654 -2.080983
