ply
format ascii 1.0
element vertex 1710
property float x
property float y
property float z
end_header
5.264319 5.828607 -2.973513
5.194009 5.827535 -2.956192
5.162515 5.827157 -2.960794
5.144218 5.826834 -2.951050
5.109656 5.826098 -2.917131
5.094114 5.825802 -2.905921
5.078411 5.825503 -2.894864
5.079587 5.825690 -2.915663
5.059527 5.825347 -2.906285
5.040979 5.825016 -2.895889
5.022443 5.824684 -2.885215
4.356322 5.814649 -2.736014
4.355956 5.814652 -2.737092
4.342726 5.814472 -2.736391
4.341461 5.814449 -2.735584
4.335104 5.814236 -2.719846
4.334425 5.814216 -2.718571
4.326565 5.813995 -2.704390
4.314680 5.813836 -2.704149
4.291916 5.813447 -2.693338
4.291392 5.813546 -2.706305
4.213627 5.812492 -2.703261
4.226137 5.812634 -2.700391
4.189180 5.811974 -2.679450
4.123079 5.811170 -2.687976
4.115710 5.810946 -2.672637
4.115910 5.810950 -2.672747
4.102562 5.810765 -2.671680
4.102503 5.810763 -2.671601
4.094738 5.810522 -2.654695
4.095650 5.810516 -2.652447
4.094697 5.810523 -2.654864
4.084349 5.810389 -2.655222
3.885725 5.807352 -2.605289
3.869728 5.807177 -2.609679
3.820136 5.806550 -2.613224
3.819147 5.806523 -2.611614
3.815660 5.806462 -2.609706
3.794510 5.806109 -2.600943
3.796740 5.806130 -2.599871
3.793006 5.806056 -2.596916
3.769104 5.805668 -2.587996
3.742294 5.805213 -2.575825
3.748286 5.805317 -2.578843
3.722410 5.804895 -2.569088
3.703445 5.804731 -2.579736
3.705014 5.804649 -2.567219
3.676628 5.804288 -2.568990
6.006462 5.839604 -3.117414
6.006329 5.839468 -3.100973
5.821155 5.836535 -3.042025
5.792975 5.836166 -3.042556
5.774661 5.835852 -3.033670
5.757754 5.835705 -3.043060
5.736326 5.835327 -3.031637
5.738696 5.835369 -3.032843
5.718959 5.835024 -3.022674
5.722019 5.835071 -3.023414
5.704955 5.834927 -3.033432
5.684566 5.834576 -3.023491
5.667907 5.834275 -3.013674
5.666551 5.834255 -3.013360
5.649058 5.834108 -3.023698
5.643928 5.833929 -3.010131
5.626482 5.833781 -3.020221
5.626137 5.833774 -3.019814
5.605019 5.833417 -3.010563
5.585066 5.833098 -3.003772
5.565861 5.832941 -3.015533
5.524465 5.832236 -2.996360
5.509359 5.831986 -2.990258
5.483313 5.831681 -2.995195
5.418787 5.830796 -2.991290
5.401468 5.830639 -3.000088
5.414526 5.830770 -2.994989
5.397809 5.830452 -2.983147
5.383016 5.830299 -2.988425
5.375857 5.830111 -2.976911
5.350237 5.829816 -2.982278
5.366557 5.829940 -2.971140
5.349547 5.829657 -2.964058
5.317578 5.829098 -2.947393
5.281085 5.828751 -2.963906
5.239328 5.828091 -2.950823
5.218301 5.827717 -2.939252
5.170656 5.827096 -2.940398
5.154018 5.826834 -2.935135
5.112160 5.825941 -2.893778
5.098041 5.825666 -2.883154
5.074505 5.825287 -2.874815
5.059593 5.825171 -2.884764
5.039371 5.824691 -2.858785
5.040714 5.824836 -2.874314
5.024559 5.824485 -2.857591
5.015667 5.824299 -2.849184
4.348569 5.814411 -2.719539
4.341053 5.814175 -2.702852
4.319530 5.813767 -2.687817
4.303096 5.813512 -2.683264
4.258470 5.813070 -2.701364
4.251393 5.812903 -2.692418
4.228473 5.812613 -2.694022
4.216901 5.812365 -2.682366
4.228152 5.812473 -2.677435
4.204309 5.812102 -2.670607
4.213448 5.812327 -2.683337
4.189350 5.811815 -2.659842
4.129548 5.811070 -2.665484
4.121211 5.810881 -2.655849
4.110233 5.810716 -2.653308
4.101588 5.810465 -2.636664
4.101109 5.810469 -2.637977
4.087190 5.810289 -2.638536
4.085024 5.810269 -2.639554
4.076301 5.810025 -2.623910
3.912642 5.807737 -2.608861
3.918865 5.807697 -2.593860
3.863591 5.806944 -2.591256
3.842662 5.806726 -2.598452
3.819580 5.806316 -2.585742
3.818461 5.806296 -2.585021
3.819358 5.806313 -2.585665
3.793785 5.805879 -2.573952
3.796148 5.805904 -2.573203
3.767415 5.805429 -2.561675
3.736925 5.804943 -2.551543
5.974558 5.838675 -3.055609
5.820673 5.836378 -3.023632
5.791862 5.836002 -3.024354
5.791985 5.835999 -3.023783
5.771496 5.835652 -3.014529
5.755803 5.835514 -3.022958
5.756844 5.835539 -3.024387
5.738967 5.835214 -3.013539
5.735863 5.835168 -3.013012
5.739693 5.835229 -3.014239
5.701948 5.834722 -3.013182
5.685367 5.834421 -3.003263
5.651926 5.833970 -3.002254
5.623894 5.833586 -3.000599
5.623720 5.833581 -3.000313
5.583147 5.832939 -2.987407
5.560995 5.832746 -2.999604
5.535023 5.832269 -2.983357
5.507671 5.831868 -2.978588
5.490112 5.831735 -2.990759
5.475305 5.831460 -2.981120
5.472977 5.831418 -2.979659
5.452790 5.831245 -2.991233
5.437632 5.830955 -2.980314
5.416488 5.830609 -2.972173
5.397546 5.830275 -2.961950
5.376283 5.829997 -2.962320
5.326497 5.829142 -2.938457
5.338620 5.829279 -2.935623
5.303315 5.828860 -2.941391
5.280822 5.828598 -2.945701
5.265087 5.828310 -2.936077
5.236275 5.827899 -2.932376
5.243549 5.827734 -2.900516
5.212721 5.827511 -2.923102
5.197029 5.827168 -2.906548
5.194553 5.827220 -2.916919
5.194880 5.827222 -2.916577
5.194880 5.827222 -2.916577
5.176248 5.827012 -2.920981
5.176386 5.826849 -2.900988
5.154764 5.826688 -2.916222
5.118600 5.825819 -2.868615
5.100488 5.825501 -2.858990
5.059211 5.824993 -2.863590
4.349349 5.814131 -2.684100
4.323779 5.813694 -2.671981
4.331052 5.813924 -2.688453
4.320786 5.813663 -2.673082
4.301058 5.813319 -2.663034
4.275393 5.812928 -2.656747
4.250711 5.812713 -2.670320
4.231988 5.812345 -2.655545
4.213643 5.812188 -2.666129
4.200998 5.811923 -2.654102
4.189475 5.811631 -2.637177
4.168150 5.811387 -2.641808
4.117729 5.810672 -2.636035
4.105161 5.810416 -2.624945
4.109367 5.810422 -2.619017
4.092982 5.810215 -2.620010
4.092951 5.810230 -2.622015
4.082718 5.809981 -2.608151
4.082720 5.809955 -2.604986
4.084007 5.809964 -2.603931
3.998890 5.808770 -2.595653
3.937882 5.807787 -2.574231
3.909972 5.807497 -2.583815
3.889578 5.807111 -2.569728
3.868169 5.806726 -2.557352
3.844049 5.806522 -2.571257
3.839540 5.806477 -2.573044
3.818392 5.806088 -2.559805
3.818573 5.806096 -2.560384
3.792951 5.805631 -2.545078
5.993511 5.839034 -3.068811
5.977342 5.838562 -3.037419
5.986663 5.838783 -3.049156
5.962848 5.838437 -3.045353
5.935592 5.837870 -3.020202
5.900352 5.837302 -3.007826
5.877229 5.837225 -3.035779
5.862883 5.836896 -3.018767
5.863950 5.836906 -3.018309
5.841093 5.836573 -3.014560
5.824661 5.836437 -3.024443
5.805573 5.836112 -3.015573
5.803645 5.836072 -3.013835
5.809302 5.836153 -3.014480
5.786230 5.835755 -3.003284
5.789078 5.835801 -3.004329
5.791640 5.835835 -3.004331
5.774198 5.835687 -3.014379
5.752832 5.835312 -3.003208
5.739854 5.835065 -2.993942
5.718932 5.834867 -3.003450
5.718972 5.834867 -3.003401
5.722562 5.834917 -3.003734
5.702168 5.834564 -2.993626
5.701725 5.834560 -2.993911
5.684206 5.834258 -2.985303
5.684077 5.834260 -2.985729
5.662250 5.834056 -2.996034
5.639843 5.833566 -2.972468
5.651308 5.833808 -2.983483
5.631152 5.833650 -2.996735
5.582023 5.832804 -2.972825
5.566962 5.832672 -2.980939
5.550650 5.832405 -2.974644
5.532664 5.832131 -2.970413
5.525082 5.832020 -2.969068
5.496193 5.831636 -2.968884
5.473228 5.831259 -2.959888
5.456741 5.831118 -2.969222
5.439730 5.830613 -2.935153
5.439730 5.830613 -2.935153
5.439730 5.830613 -2.935153
5.427587 5.830372 -2.925405
5.414285 5.830418 -2.952380
5.392173 5.829930 -2.928670
5.377197 5.829593 -2.911607
5.366438 5.829728 -2.945355
5.350781 5.829219 -2.908661
5.355356 5.829402 -2.923625
5.336179 5.828944 -2.898602
5.321311 5.828960 -2.924594
5.309116 5.828706 -2.913358
5.309116 5.828706 -2.913358
5.309116 5.828706 -2.913358
5.292964 5.828288 -2.888356
5.281149 5.828450 -2.927150
5.292557 5.828329 -2.894081
5.262870 5.828087 -2.912368
5.193525 5.826819 -2.869651
5.198953 5.826995 -2.882351
5.174107 5.826687 -2.884832
5.155836 5.826415 -2.881155
5.140339 5.826111 -2.869069
5.103848 5.825365 -2.836932
5.039319 5.824328 -2.814615
5.024763 5.824051 -2.804324
5.004097 5.823835 -2.811280
4.331121 5.813655 -2.655552
4.338870 5.813897 -2.672474
4.338362 5.813871 -2.670069
4.317463 5.813461 -2.653842
4.301550 5.813152 -2.641875
4.274610 5.812702 -2.630444
4.223339 5.812089 -2.638448
4.219903 5.812106 -2.645937
4.221234 5.812120 -2.645484
4.206280 5.811817 -2.632669
4.206177 5.811777 -2.628001
4.193651 5.811571 -2.623091
4.167583 5.811140 -2.612505
4.179501 5.811376 -2.622118
4.117451 5.810518 -2.617677
4.099841 5.810168 -2.603314
4.108500 5.810266 -2.601386
4.097458 5.810160 -2.606134
4.089231 5.809919 -2.590072
4.090403 5.809914 -2.587551
4.069383 5.809680 -2.592997
4.061869 5.809447 -2.576697
4.014728 5.808967 -2.594071
3.995949 5.808602 -2.579948
3.973643 5.808223 -2.569664
3.910614 5.807290 -2.557513
3.892349 5.806932 -2.543483
3.892288 5.806933 -2.543633
3.868211 5.806726 -2.557213
3.869281 5.806727 -2.555571
3.854487 5.806479 -2.549268
3.842858 5.806296 -2.545678
3.839576 5.806275 -2.548380
3.830464 5.806001 -2.529714
3.822034 5.805999 -2.543043
3.804388 5.805783 -2.545200
3.812065 5.805853 -2.541349
6.038077 5.839387 -3.039943
6.020113 5.839089 -3.032629
5.998467 5.838916 -3.046394
5.980606 5.838466 -3.020308
5.988494 5.838681 -3.033773
5.968235 5.838291 -3.018963
5.938124 5.837765 -3.003304
5.896186 5.837209 -3.003274
5.877249 5.837052 -3.014626
5.858736 5.836725 -3.004562
5.858942 5.836731 -3.004946
5.841521 5.836410 -2.993905
5.841372 5.836410 -2.994126
5.823642 5.836260 -3.004526
5.806376 5.835949 -2.994454
5.803210 5.835904 -2.994057
5.809254 5.835986 -2.994213
5.786642 5.835598 -2.983554
5.791650 5.835668 -2.983963
5.769865 5.835456 -2.993250
5.752700 5.835155 -2.984228
5.722189 5.834751 -2.984168
5.734861 5.834859 -2.976928
5.667893 5.833944 -2.973321
5.651969 5.833684 -2.967370
5.630235 5.833352 -2.961794
5.612968 5.833214 -2.972902
5.597200 5.832937 -2.964548
5.581189 5.832672 -2.958083
5.565559 5.832515 -2.964157
5.543295 5.832176 -2.958705
5.530968 5.831935 -2.949215
5.521939 5.831816 -2.949303
5.516094 5.831805 -2.957322
5.497157 5.831501 -2.950846
5.478846 5.831139 -2.936217
5.474743 5.830949 -2.919611
5.449581 5.830559 -2.912714
5.453257 5.830762 -2.931481
5.432613 5.830231 -2.900061
5.412198 5.830060 -2.912105
5.385975 5.829519 -2.888508
5.396811 5.829770 -2.901647
5.369597 5.829380 -2.897936
5.353565 5.829090 -2.888383
5.334579 5.828751 -2.877711
5.309178 5.828419 -2.878223
5.307142 5.828503 -2.891765
5.293095 5.828106 -2.865924
5.295901 5.828134 -2.864853
5.256510 5.827839 -2.892431
5.228993 5.827402 -2.883521
5.233079 5.827413 -2.878230
5.193435 5.826671 -2.851750
5.175168 5.826535 -2.864599
5.159006 5.826267 -2.857985
5.053691 5.824450 -2.806398
5.039512 5.824181 -2.796415
5.014570 5.823762 -2.785527
4.325140 5.813426 -2.637179
4.305892 5.813002 -2.616602
4.304309 5.812984 -2.616843
4.274489 5.812493 -2.605103
4.241652 5.812222 -2.625080
4.241652 5.812222 -2.625080
4.241652 5.812222 -2.625080
4.219813 5.811939 -2.625786
4.213704 5.811734 -2.610668
4.208654 5.811646 -2.608106
4.185686 5.811303 -2.603134
4.191991 5.811500 -2.617113
4.169001 5.811005 -2.593781
4.149555 5.810633 -2.579851
4.128349 5.810522 -2.600441
4.101487 5.810085 -2.590443
4.105688 5.810115 -2.587441
4.100523 5.809911 -2.570906
4.086335 5.809735 -2.572212
4.072872 5.809570 -2.573908
4.078896 5.809639 -2.572491
4.048366 5.809142 -2.561271
4.048820 5.809220 -2.569946
4.034418 5.809007 -2.567260
4.014725 5.808764 -2.569378
3.994873 5.808404 -2.557578
3.973859 5.808021 -2.544724
3.975075 5.808046 -2.545864
3.952400 5.807838 -2.557027
3.954613 5.807873 -2.557659
3.931671 5.807467 -2.545180
3.910746 5.807096 -2.533780
3.883982 5.806685 -2.526800
3.869789 5.806612 -2.540856
3.861497 5.806524 -2.543386
3.835719 5.806150 -2.539415
6.041933 5.839272 -3.019783
6.034712 5.839087 -3.008687
6.012103 5.838901 -3.022495
5.990451 5.838557 -3.015567
5.966587 5.838167 -3.006513
5.966284 5.838158 -3.005892
5.979364 5.838297 -3.001686
5.954641 5.837916 -2.995151
5.935742 5.837597 -2.986806
5.918574 5.837422 -2.993113
5.909022 5.837231 -2.985193
5.895561 5.837031 -2.982491
5.896228 5.837049 -2.983745
5.877377 5.836885 -2.994106
5.876419 5.836870 -2.993768
5.879472 5.836746 -2.973631
5.879382 5.836743 -2.973471
5.859162 5.836559 -2.983696
5.859303 5.836562 -2.983756
5.839089 5.836206 -2.973067
5.841424 5.836244 -2.973790
5.821150 5.836055 -2.983587
5.823832 5.836097 -2.984338
5.803519 5.835742 -2.973799
5.786209 5.835441 -2.965040
5.769462 5.835299 -2.974666
5.721818 5.834586 -2.964552
5.723295 5.834604 -2.964392
5.724369 5.834602 -2.962525
5.703709 5.834318 -2.961126
5.699547 5.834250 -2.959601
5.687659 5.834152 -2.966847
5.663534 5.833780 -2.960349
5.674541 5.833903 -2.957705
5.667552 5.833817 -2.958354
5.650743 5.833566 -2.954854
5.653580 5.833555 -2.949021
5.634457 5.833413 -2.962479
5.628754 5.833211 -2.947087
5.613297 5.833075 -2.955445
5.597415 5.832799 -2.947461
5.597497 5.832804 -2.947892
5.578676 5.832470 -2.937423
5.578526 5.832469 -2.937704
5.561153 5.832326 -2.948224
5.561204 5.832325 -2.948025
5.547730 5.832038 -2.934709
5.546189 5.832066 -2.940615
5.537973 5.831657 -2.904009
5.544653 5.832036 -2.939499
5.515128 5.831650 -2.940004
5.483936 5.830853 -2.893044
5.453588 5.830407 -2.887727
5.430900 5.830037 -2.879127
5.402811 5.829666 -2.879163
5.412668 5.829881 -2.889516
5.380756 5.829330 -2.873837
5.363695 5.829182 -2.883334
5.354601 5.828913 -2.865232
5.329697 5.828500 -2.854935
5.308086 5.828300 -2.865492
5.288651 5.827893 -2.847210
5.267132 5.827683 -2.856244
5.262738 5.827646 -2.858822
5.247613 5.827260 -2.836085
5.211961 5.826821 -2.840104
5.191937 5.826494 -2.832565
5.157952 5.826069 -2.835538
5.066868 5.824565 -2.799051
5.052508 5.824292 -2.788903
5.036536 5.824003 -2.779448
4.311088 5.812944 -2.601118
4.298597 5.812769 -2.599960
4.272679 5.812283 -2.582357
4.244194 5.811878 -2.578957
4.239321 5.811912 -2.590930
4.197861 5.811424 -2.598341
4.182458 5.811132 -2.587574
4.173113 5.810883 -2.572227
4.111383 5.810044 -2.569554
4.101077 5.809760 -2.551567
4.083900 5.809611 -2.561090
4.070200 5.809346 -2.550930
4.047998 5.809020 -2.546988
4.015765 5.808583 -2.545627
3.995341 5.808217 -2.533982
3.978388 5.807889 -2.521330
3.955556 5.807694 -2.534420
3.952526 5.807640 -2.532654
3.939460 5.807391 -2.523383
3.929629 5.807252 -2.522296
3.902156 5.806846 -2.517191
6.067905 5.839578 -3.015143
6.068466 5.839581 -3.014668
6.067905 5.839578 -3.015143
6.034032 5.838924 -2.990037
6.011713 5.838736 -3.003119
5.996945 5.838445 -2.991467
5.968805 5.838065 -2.990436
5.983223 5.838204 -2.984204
5.952764 5.837790 -2.982838
5.912017 5.837168 -2.972707
5.895816 5.836864 -2.961710
5.857191 5.836359 -2.962392
5.859169 5.836392 -2.963356
5.823961 5.835934 -2.964180
5.841571 5.836078 -2.953420
5.820699 5.835887 -2.963835
5.804401 5.835584 -2.953100
5.785507 5.835264 -2.944571
5.771974 5.835152 -2.952804
5.751880 5.834840 -2.947110
5.731007 5.834541 -2.944308
5.711332 5.834379 -2.956279
5.702326 5.834152 -2.943221
5.703037 5.834156 -2.942406
5.686043 5.834010 -2.952040
5.668959 5.833717 -2.943951
5.651035 5.833392 -2.933169
5.633695 5.833262 -2.945388
5.613926 5.832935 -2.937331
5.628550 5.833064 -2.929391
5.593914 5.832612 -2.930241
5.578960 5.832332 -2.920170
5.580592 5.832349 -2.919717
5.572189 5.832265 -2.922973
5.556017 5.831812 -2.893728
5.563590 5.832036 -2.908870
5.561245 5.832193 -2.931831
5.562191 5.832191 -2.930070
5.563590 5.832036 -2.908870
5.537655 5.831481 -2.882990
5.506479 5.831038 -2.879374
5.483345 5.830680 -2.873022
5.446949 5.830213 -2.874682
5.433206 5.829938 -2.863394
5.417300 5.829805 -2.872822
5.398225 5.829463 -2.861881
5.399909 5.829495 -2.863024
5.383886 5.829204 -2.853431
5.345463 5.828626 -2.844838
5.350369 5.828677 -2.843132
5.330746 5.828478 -2.850666
5.309736 5.828109 -2.839387
5.265606 5.827235 -2.804049
5.264685 5.827455 -2.832387
5.215177 5.826678 -2.817529
5.196071 5.826357 -2.809120
5.176254 5.826211 -2.823393
5.161849 5.825937 -2.813172
5.140387 5.825476 -2.791554
5.118215 5.825060 -2.776609
5.066133 5.824410 -2.781295
5.054564 5.824167 -2.770457
5.036301 5.823829 -2.758590
4.326036 5.813159 -2.603130
4.328151 5.813332 -2.620878
4.328151 5.813332 -2.620878
4.328151 5.813332 -2.620878
4.332180 5.813181 -2.596005
4.329004 5.813370 -2.624171
4.303436 5.812708 -2.584633
4.293420 5.812450 -2.569417
4.270179 5.812085 -2.562389
4.253952 5.811991 -2.577038
4.225889 5.811584 -2.572665
4.205622 5.811395 -2.582340
4.188116 5.811018 -2.564551
4.165545 5.810659 -2.557297
4.173368 5.810740 -2.554371
4.161417 5.810628 -2.560162
4.147842 5.810361 -2.549428
4.098526 5.809678 -2.545736
4.086007 5.809476 -2.541297
4.064945 5.809167 -2.537495
4.052719 5.808898 -2.524534
4.035952 5.808754 -2.533925
4.014852 5.808380 -2.522412
3.994892 5.808027 -2.511480
3.970104 5.807624 -2.502411
3.947459 5.807412 -2.512967
6.075873 5.839628 -3.008244
6.060651 5.839256 -2.987507
6.054333 5.839149 -2.984728
6.033152 5.838772 -2.972885
6.015200 5.838489 -2.967288
5.997934 5.838233 -2.963975
5.982200 5.837949 -2.954705
5.965719 5.837916 -2.977360
5.968144 5.837945 -2.976822
5.952700 5.837670 -2.968270
5.928091 5.837307 -2.963731
5.912075 5.837016 -2.954107
5.893680 5.836690 -2.943939
5.876864 5.836542 -2.953074
5.890788 5.836650 -2.943744
5.860535 5.836228 -2.941082
5.874022 5.836514 -2.954207
5.855823 5.836192 -2.944240
5.843527 5.835914 -2.930307
5.822076 5.835731 -2.942457
5.804441 5.835432 -2.934553
5.779603 5.835119 -2.936466
5.718262 5.834289 -2.934057
5.721029 5.834311 -2.932328
5.701880 5.833999 -2.925151
5.684921 5.833844 -2.933656
5.688070 5.833876 -2.932441
5.669755 5.833546 -2.921866
5.647270 5.832885 -2.877416
5.650841 5.833224 -2.912992
5.628404 5.832919 -2.911937
5.626136 5.832889 -2.912064
5.615794 5.832457 -2.876024
5.612199 5.832405 -2.875490
5.592635 5.832101 -2.869948
5.576756 5.831965 -2.879039
5.556097 5.831635 -2.872115
5.537528 5.831311 -2.862588
5.519847 5.831138 -2.869894
5.499728 5.830821 -2.863763
5.483072 5.830518 -2.853605
5.465926 5.830372 -2.863491
5.446183 5.830050 -2.856151
5.415089 5.829632 -2.855225
5.425406 5.829723 -2.849754
5.397015 5.829323 -2.846706
5.376571 5.829020 -2.842863
5.358894 5.828726 -2.835375
5.328582 5.828282 -2.830163
5.347132 5.828438 -2.819293
5.335280 5.828318 -2.823803
5.343024 5.828403 -2.821599
5.328054 5.828285 -2.831468
5.309152 5.827908 -2.815842
5.282989 5.827558 -2.815392
5.288397 5.827592 -2.810872
5.273940 5.827318 -2.800714
5.258455 5.827025 -2.790060
5.240329 5.826858 -2.798894
5.238886 5.826736 -2.786376
5.219604 5.826519 -2.790962
5.189156 5.826112 -2.790496
5.141301 5.825341 -2.773690
5.119805 5.824931 -2.758258
5.099901 5.824750 -2.768388
5.087779 5.824614 -2.771286
5.030421 5.823564 -2.735803
5.000340 5.823117 -2.729796
4.288347 5.812294 -2.558561
4.281847 5.812060 -2.540399
4.255505 5.811807 -2.552086
4.225817 5.811390 -2.549236
4.201395 5.811038 -2.545671
4.180939 5.810651 -2.531382
4.178652 5.810784 -2.551332
4.156054 5.810272 -2.525376
4.165536 5.810526 -2.540997
4.166789 5.810526 -2.539044
4.130345 5.809909 -2.522516
4.119582 5.809648 -2.508043
4.082351 5.809314 -2.527419
4.078078 5.809165 -2.516085
4.078218 5.809292 -2.531350
4.054535 5.808743 -2.502650
4.034652 5.808580 -2.514850
4.012386 5.808180 -2.501957
6.071585 5.839396 -2.986974
6.060660 5.839077 -2.965662
6.048078 5.838897 -2.964060
6.049366 5.838937 -2.966887
6.020905 5.838394 -2.946621
5.998884 5.838120 -2.948606
5.981243 5.837825 -2.941126
5.980064 5.837846 -2.945511
5.972015 5.837689 -2.939481
5.945656 5.837281 -2.932186
5.947614 5.837326 -2.934517
5.928488 5.837157 -2.944685
5.911424 5.836863 -2.936389
5.839686 5.835875 -2.931649
5.824990 5.835630 -2.925511
5.810250 5.835499 -2.933330
5.795899 5.835262 -2.927556
5.777198 5.834975 -2.922768
5.755198 5.834631 -2.916367
5.735241 5.834444 -2.925586
5.737366 5.834483 -2.926978
5.720596 5.834177 -2.916791
5.721560 5.834163 -2.913370
5.701935 5.833845 -2.906389
5.688247 5.833723 -2.913490
5.671551 5.833411 -2.902395
5.670819 5.833272 -2.886688
5.646395 5.832730 -2.859962
5.630333 5.832592 -2.869049
5.608945 5.832250 -2.861779
5.590518 5.831923 -2.851658
5.572066 5.831765 -2.862216
5.554642 5.831459 -2.852983
5.536582 5.831133 -2.842383
5.534423 5.831126 -2.844991
5.518207 5.830978 -2.853036
5.495379 5.830624 -2.846735
5.463009 5.830189 -2.845909
5.416791 5.829488 -2.834923
5.312756 5.827776 -2.793981
5.288763 5.827442 -2.791965
5.291648 5.827530 -2.798130
5.272755 5.827147 -2.781916
5.260353 5.826895 -2.771135
5.245079 5.826762 -2.779569
5.253198 5.826785 -2.769163
5.235297 5.826569 -2.771721
5.224248 5.826313 -2.758475
5.214035 5.826323 -2.776075
5.202268 5.826082 -2.765615
5.165387 5.825654 -2.772993
5.148991 5.825319 -2.758594
5.129565 5.825014 -2.752675
5.123007 5.824828 -2.740597
5.107625 5.824691 -2.748672
5.044195 5.823675 -2.727148
5.030289 5.823405 -2.716654
5.030169 5.823331 -2.707820
5.015498 5.823137 -2.707888
4.306766 5.812453 -2.548186
4.293562 5.812154 -2.533085
4.293594 5.812235 -2.542808
4.280162 5.811890 -2.522419
4.203220 5.810861 -2.521083
4.167119 5.810380 -2.520553
4.154884 5.810117 -2.508285
4.080586 5.809003 -2.492410
4.020632 5.808261 -2.498540
6.028991 5.838497 -2.946073
5.998128 5.837969 -2.931546
5.965132 5.837450 -2.921337
5.950595 5.837180 -2.911864
5.930962 5.837025 -2.924649
5.914407 5.836724 -2.914670
5.874742 5.836246 -2.920368
5.874742 5.836246 -2.920368
5.857374 5.836091 -2.929502
5.811119 5.835392 -2.918944
5.819309 5.835485 -2.916914
5.795209 5.835138 -2.913523
5.772820 5.834775 -2.905349
5.737360 5.834320 -2.907064
5.740090 5.834342 -2.905352
5.754962 5.834465 -2.896365
5.722709 5.834039 -2.896502
5.720860 5.833718 -2.860348
5.719626 5.833992 -2.895803
5.719355 5.833992 -2.896122
5.696473 5.833519 -2.875426
5.692702 5.833276 -2.851876
5.661545 5.832861 -2.851477
5.671180 5.833104 -2.865589
5.629605 5.832438 -2.851444
5.627369 5.832405 -2.851026
5.588664 5.831747 -2.833173
5.587657 5.831748 -2.834917
5.572101 5.831598 -2.841766
5.571704 5.831607 -2.843536
5.554276 5.831279 -2.831605
5.546893 5.831245 -2.839339
5.533370 5.831002 -2.831609
5.538033 5.831003 -2.824138
5.260908 5.826746 -2.752064
5.263766 5.826769 -2.750226
5.245984 5.826554 -2.752704
5.238372 5.826342 -2.739058
5.213815 5.826122 -2.752030
5.200152 5.825857 -2.741695
5.192131 5.825694 -2.734687
5.178710 5.825667 -2.753048
5.167151 5.825478 -2.748628
5.147974 5.825138 -2.737998
5.128674 5.824903 -2.740618
5.115662 5.824570 -2.721001
5.058852 5.823711 -2.707899
5.041661 5.823490 -2.708662
5.035983 5.823284 -2.692708
5.036072 5.823286 -2.692708
5.020681 5.823084 -2.692962
5.013683 5.822856 -2.676534
4.299563 5.812104 -2.517278
4.293604 5.812005 -2.514741
4.276820 5.811688 -2.503209
4.265296 5.811462 -2.494199
4.206394 5.810701 -2.496468
4.184085 5.810517 -2.510035
4.167939 5.810217 -2.499501
4.166017 5.810163 -2.495987
4.142010 5.809852 -2.496726
4.133439 5.809640 -2.484724
4.116920 5.809377 -2.479331
6.033820 5.838273 -2.910944
6.031398 5.838472 -2.939183
6.014907 5.838237 -2.937078
6.029147 5.838361 -2.929151
6.015381 5.838095 -2.918953
5.980751 5.837584 -2.912570
5.945041 5.836980 -2.896499
5.948259 5.837017 -2.895756
5.929340 5.836859 -2.907055
5.915467 5.836611 -2.899181
5.877476 5.836174 -2.907203
5.844114 5.835717 -2.905248
5.827166 5.835420 -2.896328
5.810543 5.835278 -2.905840
5.801287 5.835048 -2.892827
5.772000 5.834610 -2.886561
5.756382 5.834315 -2.875845
5.731788 5.833759 -2.847699
5.736976 5.833799 -2.844262
5.714948 5.833476 -2.840312
5.714031 5.833467 -2.840695
5.699111 5.833362 -2.851974
5.678844 5.833016 -2.842435
5.677265 5.832994 -2.842299
5.660971 5.832709 -2.833878
5.660112 5.832686 -2.832490
5.642405 5.832538 -2.842915
5.644912 5.832572 -2.843047
5.627179 5.832255 -2.833053
5.629227 5.832285 -2.833452
5.603820 5.831981 -2.837231
5.613712 5.832000 -2.823717
5.584899 5.831635 -2.825610
5.569383 5.831460 -2.829296
5.552932 5.831125 -2.815008
5.269077 5.826710 -2.734533
5.251209 5.826500 -2.737653
5.241379 5.826254 -2.723620
5.229274 5.826102 -2.724538
5.190821 5.825489 -2.711760
5.166698 5.825297 -2.727283
5.127013 5.824709 -2.719629
5.102226 5.824262 -2.705078
5.088825 5.823934 -2.686748
5.046491 5.823432 -2.693851
5.035048 5.823116 -2.673681
5.035981 5.823127 -2.673553
5.021620 5.822858 -2.663912
5.009281 5.822606 -2.653085
4.986127 5.822248 -2.646696
4.300478 5.811923 -2.493662
4.276125 5.811515 -2.483162
4.225273 5.810863 -2.485693
4.204580 5.810495 -2.474231
4.183166 5.810328 -2.488441
4.168914 5.810050 -2.477388
4.145401 5.809781 -2.482617
4.126853 5.809478 -2.475613
4.102397 5.809222 -2.483877
6.043563 5.838480 -2.920518
6.045254 5.838603 -2.932734
6.043517 5.838481 -2.920720
6.029217 5.838204 -2.909966
5.992063 5.837680 -2.905967
5.978752 5.837466 -2.901308
5.950558 5.836930 -2.881463
5.929600 5.836736 -2.891664
5.894097 5.836292 -2.894738
5.878684 5.835982 -2.881818
5.862652 5.835867 -2.893602
5.847611 5.835583 -2.883241
5.832041 5.835298 -2.873648
5.815511 5.835156 -2.883025
5.821208 5.835031 -2.858505
5.788893 5.834465 -2.841671
5.769970 5.834133 -2.831693
5.769892 5.834307 -2.853039
5.763102 5.834035 -2.830873
5.763102 5.834035 -2.830873
5.763102 5.834035 -2.830873
5.730802 5.833617 -2.831884
5.730877 5.833620 -2.832177
5.730226 5.833610 -2.831987
5.714327 5.833335 -2.824188
5.713128 5.833314 -2.823436
5.710568 5.833291 -2.824823
5.693126 5.833129 -2.833242
5.695570 5.833159 -2.832955
5.693888 5.833144 -2.833870
5.677516 5.832843 -2.823525
5.677238 5.832844 -2.824002
5.678591 5.832844 -2.821970
5.680229 5.832866 -2.821928
5.678342 5.832846 -2.822546
5.661308 5.832557 -2.814861
5.658850 5.832524 -2.814746
5.662828 5.832573 -2.814265
5.645629 5.832427 -2.824245
5.643679 5.832397 -2.823685
5.628510 5.832140 -2.816903
5.626668 5.832107 -2.815796
5.257285 5.826445 -2.721103
5.240332 5.826124 -2.709433
5.228756 5.825977 -2.710105
5.215157 5.825699 -2.698189
5.182876 5.825237 -2.693837
5.165884 5.825042 -2.697500
5.147245 5.824883 -2.708191
5.132996 5.824612 -2.698174
5.117967 5.824301 -2.684504
5.093651 5.823876 -2.671853
5.101282 5.824102 -2.687141
5.033900 5.822954 -2.655763
5.025341 5.822864 -2.658574
5.009213 5.822566 -2.648307
4.997925 5.822241 -2.626927
4.312250 5.812015 -2.485896
4.276685 5.811344 -2.461443
4.256936 5.811184 -2.473845
4.235670 5.810822 -2.463958
4.220667 5.810631 -2.464982
4.186607 5.810186 -2.465649
4.167518 5.809865 -2.457113
4.143641 5.809639 -2.468061
4.129091 5.809442 -2.467591
6.044670 5.838492 -2.920153
5.909477 5.836401 -2.883259
5.924065 5.836522 -2.874502
5.924482 5.836521 -2.873746
5.894727 5.836116 -2.872290
5.896933 5.836135 -2.871082
5.907952 5.836389 -2.884223
5.879606 5.835856 -2.864953
5.864094 5.835723 -2.873760
5.846620 5.835430 -2.866240
5.846712 5.835246 -2.843569
5.843579 5.835084 -2.828991
5.824934 5.834930 -2.840282
5.823972 5.834863 -2.833678
5.804986 5.834560 -2.827265
5.790165 5.834294 -2.818733
5.787713 5.834278 -2.820668
5.768952 5.833953 -2.811414
5.769573 5.833957 -2.810966
5.750146 5.833793 -2.822283
5.732025 5.833480 -2.813290
5.714514 5.833162 -2.802760
5.712573 5.833150 -2.804508
5.710513 5.833133 -2.805674
5.695100 5.832995 -2.813764
5.693633 5.832989 -2.815298
5.696481 5.833009 -2.813089
5.675806 5.832668 -2.805036
5.678270 5.832695 -2.804186
5.679978 5.832712 -2.803579
5.252090 5.826273 -2.708588
5.207034 5.825452 -2.681187
5.178326 5.825002 -2.672578
5.164918 5.824900 -2.681719
5.148674 5.824754 -2.690205
5.134807 5.824486 -2.679852
5.109922 5.824082 -2.670737
5.097525 5.823796 -2.655868
5.086704 5.823653 -2.655859
5.025058 5.822702 -2.639311
5.011383 5.822428 -2.627974
4.978492 5.821917 -2.618742
4.370836 5.812693 -2.474105
4.351309 5.812529 -2.485510
4.331248 5.812172 -2.474441
4.312785 5.811824 -2.461806
4.294599 5.811494 -2.450861
4.229393 5.810636 -2.451404
4.201500 5.810317 -2.457496
4.185342 5.810019 -2.447201
4.156630 5.809674 -2.451563
4.148730 5.809571 -2.451689
6.047062 5.838363 -2.900612
5.963007 5.836843 -2.850828
5.943321 5.836668 -2.861248
5.911720 5.836266 -2.863161
5.926482 5.836393 -2.854917
5.926261 5.836387 -2.854457
5.910237 5.836250 -2.863669
5.910370 5.836048 -2.838702
5.894305 5.835984 -2.856827
5.892377 5.835957 -2.856685
5.894308 5.835979 -2.856185
5.885828 5.835601 -2.823855
5.871879 5.835310 -2.810807
5.856226 5.835154 -2.817146
5.824716 5.834761 -2.819993
5.825012 5.834592 -2.798973
5.805957 5.834438 -2.810771
5.787132 5.834109 -2.801084
5.767686 5.833781 -2.792465
5.749784 5.833630 -2.802940
5.730252 5.833295 -2.793555
5.730130 5.833334 -2.798572
5.709853 5.833045 -2.796067
5.692800 5.832851 -2.799855
5.247137 5.826061 -2.690749
5.200400 5.825189 -2.659818
5.172905 5.824772 -2.653237
5.153289 5.824644 -2.669344
5.109429 5.823895 -2.648758
5.024287 5.822539 -2.620715
5.014515 5.822307 -2.608151
5.000534 5.822039 -2.597977
4.443807 5.813675 -2.476066
4.412297 5.813242 -2.474257
4.412952 5.813247 -2.473662
4.390619 5.812860 -2.462470
4.372036 5.812520 -2.451017
4.351333 5.812342 -2.462687
4.331419 5.811985 -2.451391
4.331060 5.811979 -2.451167
4.314446 5.811667 -2.439901
4.313299 5.811650 -2.439693
4.313013 5.811636 -2.438430
4.288499 5.811267 -2.433054
4.201192 5.810153 -2.438094
4.182463 5.809873 -2.433951
4.127320 5.809317 -2.455243
5.936847 5.836326 -2.829955
5.943111 5.836530 -2.844694
5.903940 5.835743 -2.811907
5.886494 5.835443 -2.803528
5.852536 5.834992 -2.803276
5.805046 5.834274 -2.792249
5.821834 5.834450 -2.786733
5.784471 5.833925 -2.782905
5.785738 5.833950 -2.783979
5.751635 5.833467 -2.780070
5.747310 5.833444 -2.784216
5.147440 5.824352 -2.643146
5.126597 5.824036 -2.638211
5.111342 5.823737 -2.626361
5.072327 5.823120 -2.614129
5.086221 5.823381 -2.623501
5.025293 5.822401 -2.602185
5.014963 5.822164 -2.589958
5.002164 5.821907 -2.579333
5.000930 5.821841 -2.573201
4.993955 5.821676 -2.564469
4.970807 5.821341 -2.560834
4.475910 5.813942 -2.456892
4.452387 5.813562 -2.448604
4.434969 5.813432 -2.460758
4.427461 5.813347 -2.462581
4.411210 5.813033 -2.450409
4.410598 5.813006 -2.448172
4.392626 5.812677 -2.437009
4.376032 5.812359 -2.425001
4.351931 5.812162 -2.439816
4.331247 5.811796 -2.428521
4.305850 5.811406 -2.422016
4.160886 5.809592 -2.434545
5.940313 5.836042 -2.789788
5.903935 5.835583 -2.792382
5.887500 5.835277 -2.781567
5.853910 5.834858 -2.784708
5.837788 5.834580 -2.776820
5.803090 5.834123 -2.777073
5.227102 5.825397 -2.642093
5.215665 5.825138 -2.628880
5.193352 5.824763 -2.619200
5.153420 5.824109 -2.603774
5.130244 5.823896 -2.615326
5.105379 5.823463 -2.602579
5.076857 5.823047 -2.597871
5.060448 5.822705 -2.582632
5.014534 5.822017 -2.572730
5.027717 5.822189 -2.572485
5.005768 5.821779 -2.557842
4.990295 5.821590 -2.559854
4.982289 5.821386 -2.547891
4.579072 5.815114 -2.433492
4.532849 5.814641 -2.450305
4.530169 5.814635 -2.453866
4.499745 5.814216 -2.451849
4.490348 5.813909 -2.429515
4.473147 5.813738 -2.436529
4.452912 5.813386 -2.426293
4.453528 5.813390 -2.425730
4.432663 5.813215 -2.438052
4.411153 5.812834 -2.426297
4.392592 5.812500 -2.415500
4.373876 5.812164 -2.404726
4.355048 5.812005 -2.415627
4.325465 5.811574 -2.410809
6.003931 5.836781 -2.777095
6.000810 5.836837 -2.789137
5.968113 5.836408 -2.789501
5.919669 5.835730 -2.784952
5.230662 5.825253 -2.618762
5.212732 5.824923 -2.607354
5.193429 5.824597 -2.598896
5.174088 5.824283 -2.591728
5.153471 5.823927 -2.581636
5.125935 5.823638 -2.590744
5.107894 5.823310 -2.579890
5.087267 5.823125 -2.590590
5.074342 5.822873 -2.580705
5.015888 5.821925 -2.559312
5.009461 5.821706 -2.543128
4.997958 5.821551 -2.542704
4.989088 5.821315 -2.528209
4.969982 5.821087 -2.531201
4.555537 5.814844 -2.438422
4.535841 5.814492 -2.427275
4.528559 5.814598 -2.451907
4.518795 5.814353 -2.437909
4.499995 5.814007 -2.426023
4.498003 5.813991 -2.427130
4.472100 5.813550 -2.415205
4.453677 5.813215 -2.404037
4.435014 5.813056 -2.414821
4.417326 5.812728 -2.403344
4.386772 5.812275 -2.397416
5.981307 5.836615 -2.793471
5.979338 5.836575 -2.791707
5.967688 5.836272 -2.773584
5.956220 5.836155 -2.777936
5.905225 5.835268 -2.751908
5.230022 5.825062 -2.596603
5.210654 5.824740 -2.588508
5.194136 5.824449 -2.579644
5.176108 5.824146 -2.571749
5.126752 5.823468 -2.568724
5.105273 5.823083 -2.556422
5.079173 5.822805 -2.564607
5.067664 5.822541 -2.551031
5.055865 5.822379 -2.550230
5.002203 5.821486 -2.527885
4.991308 5.821237 -2.515019
4.981320 5.821087 -2.512934
4.970505 5.820834 -2.499476
4.607977 5.815593 -2.445276
4.570141 5.814939 -2.426510
4.555687 5.814659 -2.415697
4.535307 5.814298 -2.404564
4.536079 5.814312 -2.404995
4.535823 5.814303 -2.404295
4.517219 5.814148 -2.415495
4.518367 5.814167 -2.415814
4.499755 5.813798 -2.400843
4.472346 5.813374 -2.393280
4.447943 5.812989 -2.385760
6.013886 5.836600 -2.739071
5.978906 5.836438 -2.775700
5.954988 5.835968 -2.757138
5.959559 5.835930 -2.745027
5.934608 5.835639 -2.749899
5.924210 5.835335 -2.729481
5.882939 5.834771 -2.727306
5.883601 5.834632 -2.709240
5.209831 5.824581 -2.570344
5.194097 5.824295 -2.560961
5.125886 5.823270 -2.545980
5.103734 5.822913 -2.538169
5.075361 5.822506 -2.534350
5.063993 5.822372 -2.536341
5.056742 5.822147 -2.520571
5.050151 5.821926 -2.504312
4.996789 5.821181 -2.499405
4.983705 5.821011 -2.499749
4.975319 5.820780 -2.485171
4.690573 5.816531 -2.426360
4.651196 5.815979 -2.422595
4.629622 5.815625 -2.414146
4.611433 5.815299 -2.403730
4.592335 5.815133 -2.414268
4.576026 5.814834 -2.404194
4.555929 5.814477 -2.393037
4.557133 5.814495 -2.393239
4.536591 5.814128 -2.381703
4.537187 5.814137 -2.381871
4.517672 5.813978 -2.393878
4.518668 5.813995 -2.394442
4.501431 5.813663 -2.381717
4.489227 5.813519 -2.383751
4.371254 5.811873 -2.373520
6.030665 5.836778 -2.733736
5.987103 5.836158 -2.728377
5.986858 5.836156 -2.728510
5.969396 5.835800 -2.713304
5.976750 5.835885 -2.711711
5.911606 5.835083 -2.719037
5.887173 5.834495 -2.686751
5.207727 5.824406 -2.552493
5.186776 5.823890 -2.523309
5.124181 5.823076 -2.525065
5.066855 5.822282 -2.520677
5.038536 5.821626 -2.486415
4.981447 5.820736 -2.469925
4.964705 5.820531 -2.471904
4.967376 5.820548 -2.469718
4.750948 5.817193 -2.409695
4.743033 5.817086 -2.409446
4.726562 5.816858 -2.408196
4.714656 5.816716 -2.410111
4.690761 5.816350 -2.403964
4.668490 5.816143 -2.414704
4.669176 5.816133 -2.412275
4.650487 5.815820 -2.404295
4.649918 5.815802 -2.403029
4.631780 5.815474 -2.392288
4.630747 5.815467 -2.393180
4.613425 5.815153 -2.382717
4.595669 5.815004 -2.393173
4.576708 5.814663 -2.382330
4.557746 5.814324 -2.371526
4.536650 5.813942 -2.358961
4.536057 5.813935 -2.358986
4.514588 5.813756 -2.371781
4.513213 5.813741 -2.372297
5.887129 5.834298 -2.662849
5.201048 5.824015 -2.515523
5.185814 5.823745 -2.507246
5.166610 5.823537 -2.512939
5.124910 5.822891 -2.501363
5.045940 5.821591 -2.470226
5.026205 5.821243 -2.459654
5.006768 5.821113 -2.475071
4.987936 5.820694 -2.454415
4.973650 5.820505 -2.454421
4.965698 5.820271 -2.438595
4.770190 5.817386 -2.402191
4.723651 5.816664 -2.389251
4.731865 5.816865 -2.400551
4.710898 5.816521 -2.392318
4.690929 5.816170 -2.381748
4.671588 5.816006 -2.393023
4.657147 5.815718 -2.381089
4.652656 5.815666 -2.381981
4.652861 5.815668 -2.381992
4.633907 5.815324 -2.370531
4.632481 5.815305 -2.370639
4.634149 5.815328 -2.370582
4.615156 5.815001 -2.361418
4.599065 5.814864 -2.370639
4.580873 5.814545 -2.361068
5.881586 5.834066 -2.643481
5.874473 5.834022 -2.649617
5.861981 5.833768 -2.638756
5.218267 5.824249 -2.516348
5.170826 5.823316 -2.479085
5.171906 5.823285 -2.473479
5.176532 5.823510 -2.493528
5.135055 5.822858 -2.480915
5.116630 5.822579 -2.476626
5.093390 5.822327 -2.483443
5.058730 5.821799 -2.474926
5.051643 5.821535 -2.454117
5.038074 5.821366 -2.455431
4.976608 5.820416 -2.438684
4.968649 5.820183 -2.423220
4.957610 5.820036 -2.423013
4.931587 5.819536 -2.404079
4.789466 5.817555 -2.391770
4.776119 5.817292 -2.381137
4.776216 5.817339 -2.386745
4.750466 5.816948 -2.380617
4.728838 5.816669 -2.381477
4.710914 5.816345 -2.370883
4.720922 5.816449 -2.367433
4.699941 5.816274 -2.379900
4.699643 5.816077 -2.356332
4.678513 5.815897 -2.368575
4.669987 5.815795 -2.369854
4.652564 5.815476 -2.359048
4.631135 5.815142 -2.352932
4.630306 5.815124 -2.351951
4.593796 5.814665 -2.354905
5.898007 5.834412 -2.659172
5.889795 5.834150 -2.640486
5.861222 5.833658 -2.626686
5.183702 5.823428 -2.471928
5.183853 5.823425 -2.471318
5.170751 5.823169 -2.461284
5.148029 5.822900 -2.465084
5.128709 5.822556 -2.454349
5.099946 5.822288 -2.467970
5.093238 5.822067 -2.451932
5.058029 5.821610 -2.453015
5.041700 5.821294 -2.440820
4.960212 5.819950 -2.408335
4.957733 5.819906 -2.407014
4.954592 5.819735 -2.391177
4.944093 5.819640 -2.396575
4.925710 5.819235 -2.376909
4.851391 5.818270 -2.379004
4.811604 5.817770 -2.382122
4.790843 5.817399 -2.370446
4.771449 5.817126 -2.368450
4.729123 5.816499 -2.360222
4.741868 5.816629 -2.355628
4.720929 5.816258 -2.344037
4.719172 5.816246 -2.345454
4.700008 5.816076 -2.355679
4.683573 5.815749 -2.342307
4.688846 5.815816 -2.341942
4.692029 5.815843 -2.340108
4.668777 5.815615 -2.349822
4.674446 5.815682 -2.348853
4.647983 5.815254 -2.339353
5.877797 5.833730 -2.608637
5.869236 5.833574 -2.603378
5.859816 5.833470 -2.606038
5.209655 5.823789 -2.474069
5.197187 5.823539 -2.463702
5.198186 5.823401 -2.445292
5.197793 5.823398 -2.445637
5.183742 5.823284 -2.454340
5.170257 5.823022 -2.444253
5.149056 5.822733 -2.443033
5.150730 5.822723 -2.439242
5.093707 5.821986 -2.441283
5.075109 5.821766 -2.444449
5.074391 5.821745 -2.443108
5.056146 5.821428 -2.433856
5.035319 5.820952 -2.409303
5.041646 5.821168 -2.425583
4.971921 5.820098 -2.407460
4.958693 5.819766 -2.388361
4.933664 5.819317 -2.374022
4.908173 5.818984 -2.374420
4.884796 5.818598 -2.365167
4.886929 5.818786 -2.384594
4.848112 5.818051 -2.357627
4.828741 5.817891 -2.369329
4.829428 5.817905 -2.369951
4.802429 5.817471 -2.360558
4.784889 5.817137 -2.348126
4.765512 5.816804 -2.338841
4.747245 5.816651 -2.349563
4.735709 5.816393 -2.336707
4.739973 5.816426 -2.333912
4.701622 5.815971 -2.340257
4.717914 5.816067 -2.325621
4.706634 5.815972 -2.332296
4.660503 5.815413 -2.338546
6.002804 5.835835 -2.663655
5.213156 5.823667 -2.453514
5.170768 5.822883 -2.426326
5.154139 5.822603 -2.419011
5.108666 5.822001 -2.419034
5.083977 5.821742 -2.427226
5.093843 5.821706 -2.406920
5.076087 5.821587 -2.421009
5.041539 5.821064 -2.413003
5.031716 5.820726 -2.387584
5.033811 5.820763 -2.388761
5.033811 5.820763 -2.388761
4.975857 5.820014 -2.390980
4.962290 5.819691 -2.373374
4.921410 5.819027 -2.358349
4.923945 5.819123 -2.365963
4.906489 5.818875 -2.363852
4.886321 5.818536 -2.355064
4.867580 5.818216 -2.346280
4.841451 5.817789 -2.336432
4.842539 5.817807 -2.336850
4.821799 5.817631 -2.348845
4.802943 5.817288 -2.337417
4.785271 5.816971 -2.327286
4.763179 5.816648 -2.323490
4.748998 5.816503 -2.328654
4.752274 5.816534 -2.327140
4.739968 5.816247 -2.312110
5.884307 5.833667 -2.590499
5.881023 5.833621 -2.590104
5.180485 5.822835 -2.404841
5.168704 5.822725 -2.410473
5.154910 5.822464 -2.400777
5.108262 5.821819 -2.397523
5.074999 5.821323 -2.390624
5.056036 5.821167 -2.402268
5.043967 5.820829 -2.380424
5.037593 5.820827 -2.390550
5.026427 5.820529 -2.372113
5.032967 5.820617 -2.372383
4.997172 5.820013 -2.356405
4.966288 5.819618 -2.357990
4.953846 5.819443 -2.356793
4.923757 5.818870 -2.335478
4.903674 5.818684 -2.345146
4.887625 5.818388 -2.335054
4.859901 5.817947 -2.325874
4.866056 5.818020 -2.324811
4.841573 5.817613 -2.314698
4.822906 5.817454 -2.325500
4.803222 5.817123 -2.316890
4.781226 5.816772 -2.309532
5.196740 5.822987 -2.397065
5.184060 5.822748 -2.388565
5.144037 5.822095 -2.373386
5.091802 5.821472 -2.381657
5.072632 5.821083 -2.365097
5.074671 5.821138 -2.368606
5.056390 5.820984 -2.379318
5.054508 5.820930 -2.375707
5.036293 5.820593 -2.364017
5.039115 5.820684 -2.370621
5.017838 5.820217 -2.347954
5.008620 5.819982 -2.334117
4.984662 5.819655 -2.332985
4.960045 5.819397 -2.341193
4.941700 5.819023 -2.325100
4.921711 5.818674 -2.314791
4.919920 5.818657 -2.315675
4.903648 5.818521 -2.325408
4.887048 5.818221 -2.315433
4.886680 5.818202 -2.313839
4.863349 5.817818 -2.304595
4.832551 5.817395 -2.302741
4.809241 5.817215 -2.318375
5.849782 5.832643 -2.521209
5.841284 5.832464 -2.513131
5.197438 5.822851 -2.379476
5.181902 5.822566 -2.369654
5.169388 5.822450 -2.375847
5.158061 5.822211 -2.364874
5.157394 5.822204 -2.365060
5.151581 5.822110 -2.362977
5.140831 5.821862 -2.350053
5.142454 5.821938 -2.356783
5.073977 5.820931 -2.344479
5.076035 5.820975 -2.346516
5.059099 5.820835 -2.356813
5.058325 5.820800 -2.353754
5.037385 5.820509 -2.352045
5.041022 5.820493 -2.344182
5.030826 5.820414 -2.350996
5.018068 5.820124 -2.336169
4.980110 5.819454 -2.315714
4.960829 5.819254 -2.322481
4.940879 5.818896 -2.310946
4.920619 5.818548 -2.301192
4.896903 5.818265 -2.305019
4.902121 5.818341 -2.305809
4.880907 5.817967 -2.294426
5.876058 5.832995 -2.521819
5.851509 5.832524 -2.504014
5.827227 5.832013 -2.480761
5.169852 5.822309 -2.357772
5.170377 5.822166 -2.339549
5.156973 5.822057 -2.347964
5.139787 5.821709 -2.333168
5.148628 5.821826 -2.333096
5.117773 5.821384 -2.329052
5.091782 5.821087 -2.334826
5.097121 5.821145 -2.333191
5.073382 5.820730 -2.320905
5.075706 5.820805 -2.326344
5.060201 5.820678 -2.335784
5.058959 5.820646 -2.333979
5.040081 5.820321 -2.324762
5.023571 5.820183 -2.334561
4.960223 5.819072 -2.301353
4.977129 5.819220 -2.291991
4.896006 5.818162 -2.293974
4.800385 5.816811 -2.283350
4.816113 5.816926 -2.272081
5.957960 5.834116 -2.526419
5.960946 5.834348 -2.549923
5.875702 5.832878 -2.508121
5.855599 5.832439 -2.486995
5.839688 5.832100 -2.471330
5.811108 5.831714 -2.470304
5.172981 5.822213 -2.341113
5.166351 5.821994 -2.325111
5.151932 5.821864 -2.332536
5.155190 5.821890 -2.330472
5.140828 5.821629 -2.321808
5.135101 5.821522 -2.317981
5.120585 5.821253 -2.308499
5.093524 5.820954 -2.315828
5.080109 5.820684 -2.304393
5.046253 5.820230 -2.303667
5.025741 5.820039 -2.313535
5.018192 5.819796 -2.296041
4.989439 5.819328 -2.285401
5.883396 5.832856 -2.493008
5.816011 5.831693 -2.459941
5.810127 5.831574 -2.454908
5.172508 5.822059 -2.323135
5.156097 5.821763 -2.313365
5.155169 5.821753 -2.313712
5.136960 5.821387 -2.298564
5.123940 5.821137 -2.289066
5.095043 5.820808 -2.295522
5.062822 5.820367 -2.293653
5.075790 5.820469 -2.285200
5.076347 5.820480 -2.285718
5.046290 5.820055 -2.282372
5.035037 5.819920 -2.283886
5.018069 5.819664 -2.280185
5.006976 5.819529 -2.281607
4.986545 5.819188 -2.273008
5.836060 5.831874 -2.449579
5.837637 5.831934 -2.454454
5.822719 5.831665 -2.445604
5.200205 5.822234 -2.299747
5.181116 5.821911 -2.291162
5.154605 5.821522 -2.286537
5.139513 5.821259 -2.278689
5.080538 5.820338 -2.261489
5.063800 5.820199 -2.271725
5.045405 5.819881 -2.262594
5.038086 5.819781 -2.262111
5.023630 5.819521 -2.253788
5.003544 5.819405 -2.271912
4.974619 5.818997 -2.269002
5.852579 5.832072 -2.447197
5.834925 5.831707 -2.431019
5.850404 5.831839 -2.422223
5.834898 5.831561 -2.413333
5.290381 5.823347 -2.290007
5.263937 5.822987 -2.288716
5.233635 5.822530 -2.281944
5.220581 5.822417 -2.289236
5.200048 5.822072 -2.280229
5.184914 5.821784 -2.269466
5.181720 5.821746 -2.270084
5.141320 5.821127 -2.259689
5.080746 5.820284 -2.254654
5.063035 5.820026 -2.251766
5.048603 5.819845 -2.252898
5.030024 5.819577 -2.250234
5.001276 5.819255 -2.257318
5.850016 5.831691 -2.404773
5.835546 5.831423 -2.395478
5.352623 5.823957 -2.263949
5.315423 5.823558 -2.275362
5.280865 5.823099 -2.275131
5.253394 5.822699 -2.270602
5.234460 5.822364 -2.260426
5.216568 5.822212 -2.270711
5.202261 5.821931 -2.259454
5.199073 5.821894 -2.260026
5.181736 5.821582 -2.249976
5.185126 5.821624 -2.249651
5.185301 5.821626 -2.249558
5.164340 5.821270 -2.240056
5.066945 5.820045 -2.247751
5.044435 5.819728 -2.245403
5.017142 5.819375 -2.246392
4.996744 5.819093 -2.244895
4.997262 5.819094 -2.244084
5.859162 5.831697 -2.390874
5.815910 5.831054 -2.382083
5.331692 5.823678 -2.263779
5.304818 5.823301 -2.261107
5.288376 5.823164 -2.270893
5.270418 5.822843 -2.260731
5.252882 5.822521 -2.249784
5.236304 5.822220 -2.239760
5.234442 5.822194 -2.239589
5.219270 5.822075 -2.249624
5.216875 5.822044 -2.249681
5.202727 5.821773 -2.239406
5.198912 5.821723 -2.239459
5.184628 5.821458 -2.230253
5.069887 5.820075 -2.246655
5.058385 5.819859 -2.238887
5.029675 5.819489 -2.240189
5.841147 5.831369 -2.379902
5.383250 5.824296 -2.256040
5.363851 5.824158 -2.270405
5.351487 5.823848 -2.252568
5.359018 5.823935 -2.251013
5.322560 5.823452 -2.250863
5.323362 5.823438 -2.247900
5.302577 5.823116 -2.242152
5.288681 5.822998 -2.250127
5.270029 5.822667 -2.239873
5.253476 5.822366 -2.229845
5.235425 5.822051 -2.220607
5.219522 5.821916 -2.229809
5.216144 5.821869 -2.229434
5.196605 5.821548 -2.221842
5.199713 5.821589 -2.221893
5.175869 5.821230 -2.216595
5.815767 5.830785 -2.349616
5.801703 5.830430 -2.328866
5.789506 5.830195 -2.320051
5.479604 5.825587 -2.257964
5.463663 5.825458 -2.267894
5.433339 5.824844 -2.242015
5.418468 5.824735 -2.252653
5.397825 5.824445 -2.250581
5.378558 5.824104 -2.240046
5.359681 5.823767 -2.229374
5.360538 5.823951 -2.250456
5.340517 5.823605 -2.240601
5.322203 5.823276 -2.230046
5.302580 5.822961 -2.223310
5.290936 5.822863 -2.229996
5.274047 5.822558 -2.220110
5.270104 5.822507 -2.220231
5.247640 5.822173 -2.215779
5.249863 5.822180 -2.213105
5.240848 5.822060 -2.212967
5.216111 5.821706 -2.209782
5.214147 5.821712 -2.213530
5.222563 5.821822 -2.213457
5.196414 5.821410 -2.205408
5.836028 5.831040 -2.348015
5.818965 5.830683 -2.331942
5.815804 5.830608 -2.327924
5.778708 5.829902 -2.301593
5.463668 5.825302 -2.248899
5.457825 5.825186 -2.244162
5.442365 5.824919 -2.236579
5.411544 5.824519 -2.237540
5.396556 5.824257 -2.229665
5.377739 5.823920 -2.218894
5.359291 5.823587 -2.208159
5.340409 5.823429 -2.219277
5.317772 5.823092 -2.214829
5.303894 5.822830 -2.205160
5.291212 5.822710 -2.210948
5.269175 5.822364 -2.204339
5.275092 5.822481 -2.209001
5.257695 5.822247 -2.208558
5.240374 5.821924 -2.197172
5.213423 5.821554 -2.195481
5.834458 5.830819 -2.323556
5.833978 5.830807 -2.322880
5.787949 5.829974 -2.295453
5.783810 5.829894 -2.292328
5.779038 5.829798 -2.288488
5.501989 5.825634 -2.227619
5.511991 5.825852 -2.237982
5.479487 5.825435 -2.239602
5.469031 5.825206 -2.228587
5.448274 5.824862 -2.220080
5.426879 5.824650 -2.228713
5.430775 5.824547 -2.209888
5.414206 5.824406 -2.219361
5.397977 5.824093 -2.207420
5.381501 5.823801 -2.198337
5.376229 5.823733 -2.198651
5.336451 5.823232 -2.201655
5.314414 5.822916 -2.198611
5.306061 5.822715 -2.187675
5.284160 5.822492 -2.195681
5.266620 5.822200 -2.188536
5.797375 5.830011 -2.284887
5.813649 5.830148 -2.275323
5.798051 5.830015 -2.284284
5.787442 5.829816 -2.277070
5.569192 5.826544 -2.230192
5.551992 5.826240 -2.220779
5.550608 5.826215 -2.220010
5.530565 5.826024 -2.229017
5.516466 5.825761 -2.219811
5.499754 5.825461 -2.210074
5.482879 5.825318 -2.219817
5.465951 5.825013 -2.209892
5.448956 5.824702 -2.199396
5.431516 5.824387 -2.189173
5.414128 5.824240 -2.199255
5.415441 5.824241 -2.197208
5.396912 5.823930 -2.189239
5.394521 5.823911 -2.190794
5.375480 5.823598 -2.183399
5.358917 5.823465 -2.193898
5.350427 5.823250 -2.181370
5.344692 5.823321 -2.199229
5.328829 5.822898 -2.173271
5.317727 5.822783 -2.177170
5.795249 5.829823 -2.265344
5.602913 5.826833 -2.210982
5.588182 5.826711 -2.219842
5.572872 5.826435 -2.210843
5.569959 5.826399 -2.211250
5.553875 5.826100 -2.200668
5.553167 5.826097 -2.201483
5.550191 5.826053 -2.200918
5.535229 5.825938 -2.211037
5.534738 5.825929 -2.210670
5.518246 5.825629 -2.200662
5.517962 5.825624 -2.200520
5.501143 5.825315 -2.189994
5.501083 5.825320 -2.190744
5.482113 5.825152 -2.200896
5.466380 5.824849 -2.189332
5.445706 5.824513 -2.181671
5.427708 5.824203 -2.172891
5.408086 5.823979 -2.177287
5.411183 5.824065 -2.182694
5.391459 5.823696 -2.169490
5.356218 5.823081 -2.151303
5.811877 5.829966 -2.255867
5.786068 5.829578 -2.250312
5.686346 5.827784 -2.192294
5.644870 5.827459 -2.219645
5.613376 5.826897 -2.201866
5.573590 5.826266 -2.189094
5.553609 5.825926 -2.179926
5.553861 5.825931 -2.180087
5.535638 5.825777 -2.190618
5.534529 5.825764 -2.190924
5.533843 5.825774 -2.193141
5.519114 5.825478 -2.180913
5.517576 5.825454 -2.180398
5.500443 5.825140 -2.169812
5.484803 5.825013 -2.179476
5.483413 5.824996 -2.179746
