ply
format ascii 1.0
element vertex 1238
property float x
property float y
property float z
property uchar red
property uchar green
property uchar blue
end_header
-9.519394 -7.086688 7.460591 0 255 0
-10.337615 -6.696191 9.457924 0 255 0
-10.042145 -6.471581 9.029376 0 255 0
-10.138852 -6.289880 9.373963 0 255 0
-10.051090 -6.111268 9.336256 0 255 0
-9.763719 -6.010850 8.824955 0 255 0
-9.495514 -5.831148 8.416593 0 255 0
-9.599912 -5.734814 8.708671 0 255 0
-9.525558 -5.503365 8.740870 0 255 0
-9.667179 -7.505070 7.429931 0 255 0
-9.643629 -7.474305 7.406070 0 255 0
-10.254523 -6.604004 9.360644 0 255 0
-10.126830 -6.282439 9.355168 0 255 0
-9.593249 -5.686664 8.733501 0 255 0
-9.818779 -5.776311 9.126093 0 255 0
-9.885434 -7.750659 7.682697 0 255 0
-9.654692 -7.496463 7.411107 0 255 0
-9.503712 -7.089415 7.426120 0 255 0
-9.553479 -5.648320 8.682312 0 255 0
-9.710159 -7.585623 7.453934 0 255 0
-9.649683 -7.542388 7.364028 0 255 0
-9.650553 -7.512370 7.389850 0 255 0
-9.633623 -7.450176 7.404782 0 255 0
-9.562909 -7.335733 7.350807 0 255 0
-9.551489 -7.305639 7.351384 0 255 0
-9.615829 -7.243547 7.533571 0 255 0
-9.444530 -7.069451 7.320248 0 255 0
-10.029213 -6.467655 9.005894 0 255 0
-9.641490 -5.735000 8.794130 0 255 0
-9.760623 -7.775568 7.405770 0 255 0
-9.760623 -7.775568 7.405770 0 255 0
-9.742507 -7.753045 7.386502 0 255 0
-9.728334 -7.724396 7.380254 0 255 0
-9.727176 -7.701069 7.396547 0 255 0
-9.714611 -7.696725 7.374154 0 255 0
-9.713317 -7.673308 7.390236 0 255 0
-9.700882 -7.668975 7.368102 0 255 0
-9.686615 -7.619835 7.378066 0 255 0
-9.654204 -7.559876 7.359335 0 255 0
-9.639008 -7.521886 7.358463 0 255 0
-9.495622 -7.223837 7.301844 0 255 0
-9.510276 -7.251346 7.309996 0 255 0
-9.480616 -7.168291 7.315415 0 255 0
-9.453209 -7.110372 7.305357 0 255 0
-9.439521 -7.082128 7.299785 0 255 0
-10.078966 -6.655118 8.958254 0 255 0
-10.060335 -6.570050 8.987995 0 255 0
-10.108540 -6.605230 9.059085 0 255 0
-10.062955 -6.546725 9.012064 0 255 0
-10.117575 -6.592541 9.087846 0 255 0
-9.841899 -6.267129 8.780756 0 255 0
-10.093917 -6.505403 9.108898 0 255 0
-10.102962 -6.508345 9.125162 0 255 0
-10.117827 -6.467553 9.188432 0 255 0
-9.749667 -6.096616 8.727361 0 255 0
-10.208799 -6.479268 9.366362 0 255 0
-9.727773 -6.038042 8.729172 0 255 0
-9.755060 -6.052011 8.774173 0 255 0
-9.731719 -6.022727 8.749561 0 255 0
-9.722868 -5.980690 8.764990 0 255 0
-9.712824 -5.952576 8.766817 0 255 0
-9.718829 -5.937988 8.790862 0 255 0
-9.726604 -5.925598 8.816789 0 255 0
-9.741977 -5.920728 8.852339 0 255 0
-9.746266 -5.906667 8.872432 0 255 0
-10.169671 -6.278425 9.446590 0 255 0
-10.172088 -6.279521 9.450687 0 255 0
-9.757991 -5.896508 8.904703 0 255 0
-9.755597 -5.894601 8.901299 0 255 0
-9.778277 -5.893701 8.948719 0 255 0
-9.784639 -5.881215 8.971815 0 255 0
-9.794736 -5.856143 9.012677 0 255 0
-9.814269 -5.832465 9.071852 0 255 0
-9.820286 -5.848106 9.071716 0 255 0
-9.825059 -5.823904 9.100923 0 255 0
-9.838478 -5.822633 9.129571 0 255 0
-9.838570 -5.804278 9.144453 0 255 0
-9.846576 -5.792594 9.170288 0 255 0
-9.851894 -5.793417 9.180583 0 255 0
-9.857301 -5.773596 9.207582 0 255 0
-9.875407 -5.790833 9.231062 0 255 0
-9.867241 -5.620816 9.350364 0 255 0
-9.540177 -5.228245 8.991230 0 255 0
-9.843709 -7.699827 7.637483 0 255 0
-9.521150 -7.239836 7.341597 0 255 0
-10.059066 -6.698062 8.882900 0 255 0
-10.057362 -6.685082 8.889781 0 255 0
-10.095892 -6.529692 9.093517 0 255 0
-10.239908 -6.536240 9.384805 0 255 0
-9.790087 -6.160523 8.759419 0 255 0
-10.191300 -6.466821 9.340296 0 255 0
-9.769251 -5.904867 8.921194 0 255 0
-9.766253 -5.884868 8.931037 0 255 0
-9.277278 -5.259249 8.425103 0 255 0
-9.372112 -5.232366 8.641888 0 255 0
-9.566216 -4.967878 9.253289 0 255 0
-9.845999 -7.638332 7.691430 0 255 0
-9.527771 -7.264498 7.335486 0 255 0
-9.509561 -7.075197 7.449545 0 255 0
-10.024125 -6.509967 8.961543 0 255 0
-10.093334 -6.552322 9.070135 0 255 0
-10.094185 -6.553215 9.071172 0 255 0
-10.125788 -6.578851 9.115717 0 255 0
-9.894944 -6.385435 8.795261 0 255 0
-10.227908 -6.547091 9.351409 0 255 0
-10.265810 -6.590422 9.394758 0 255 0
-10.279145 -6.595375 9.418251 0 255 0
-10.109893 -6.459636 9.178432 0 255 0
-10.219100 -6.515630 9.358460 0 255 0
-9.834181 -6.243475 8.783801 0 255 0
-10.248615 -6.518319 9.417080 0 255 0
-10.248615 -6.518319 9.417080 0 255 0
-10.157290 -6.429983 9.299765 0 255 0
-10.146572 -6.387171 9.311970 0 255 0
-9.131845 -5.728974 7.749603 0 255 0
-9.762496 -6.122653 8.732929 0 255 0
-10.155751 -6.389066 9.329352 0 255 0
-9.725849 -6.005880 8.750961 0 255 0
-9.839655 -5.856668 9.104741 0 255 0
-9.546053 -5.574770 8.725904 0 255 0
-9.250772 -5.320118 8.321794 0 255 0
-9.829567 -5.538664 9.338562 0 255 0
-9.387505 -5.143137 8.745015 0 255 0
-9.491234 -5.022959 9.054806 0 255 0
-10.101764 -6.539047 9.098121 0 255 0
-10.184868 -6.572405 9.242522 0 255 0
-10.184868 -6.572405 9.242522 0 255 0
-10.168410 -6.531815 9.241135 0 255 0
-10.247394 -6.576350 9.368103 0 255 0
-10.144640 -6.464971 9.245705 0 255 0
-10.195181 -6.528846 9.298631 0 255 0
-10.179117 -6.441008 9.335878 0 255 0
-10.249318 -6.510047 9.425148 0 255 0
-9.410251 -5.264063 8.695037 0 255 0
-9.784163 -7.805032 7.430650 0 255 0
-9.750864 -7.747085 7.408482 0 255 0
-9.654605 -7.536951 7.378515 0 255 0
-9.446857 -7.077533 7.318568 0 255 0
-9.389389 -6.970695 7.285777 0 255 0
-9.740832 -7.723622 7.406610 0 255 0
-9.787160 -7.821395 7.423721 0 255 0
-9.802987 -7.833285 7.446792 0 255 0
-9.761712 -7.771297 7.411433 0 255 0
-9.731009 -7.700456 7.404932 0 255 0
-9.703729 -7.640676 7.396620 0 255 0
-9.679308 -7.590544 7.386472 0 255 0
-9.644242 -7.515899 7.374031 0 255 0
-9.568004 -7.349410 7.350346 0 255 0
-9.538416 -7.279818 7.345140 0 255 0
-9.429516 -7.045086 7.308839 0 255 0
-9.409258 -7.014969 7.291240 0 255 0
-9.712006 -7.664940 7.394233 0 255 0
-9.701393 -7.632734 7.398168 0 255 0
-9.705943 -7.626734 7.412341 0 255 0
-9.553471 -7.306166 7.355044 0 255 0
-9.381516 -6.948438 7.287384 0 255 0
-9.721356 -7.676825 7.403975 0 255 0
-9.673445 -7.563956 7.395685 0 255 0
-9.775284 -7.781991 7.430817 0 255 0
-9.763415 -7.757644 7.425870 0 255 0
-9.756352 -7.732256 7.431653 0 255 0
-9.711977 -7.653115 7.403643 0 255 0
-9.615156 -7.450227 7.366721 0 255 0
-9.624307 -7.430988 7.400964 0 255 0
-9.583987 -7.362808 7.372530 0 255 0
-9.581481 -7.361071 7.368761 0 255 0
-9.558643 -7.326331 7.349550 0 255 0
-9.361312 -6.907686 7.278408 0 255 0
-9.694077 -7.609857 7.401418 0 255 0
-9.633753 -7.492245 7.371372 0 255 0
-9.604380 -7.427441 7.362772 0 255 0
-9.591437 -7.385693 7.369548 0 255 0
-9.590448 -7.384007 7.368865 0 255 0
-9.495312 -7.178401 7.337582 0 255 0
-9.345869 -6.863319 7.282133 0 255 0
-9.909835 -6.361446 8.845123 0 255 0
-10.200257 -6.347911 9.453936 0 255 0
-10.183897 -6.327068 9.436938 0 255 0
-10.084650 -6.098487 9.415590 0 255 0
-10.049498 -6.060915 9.373290 0 255 0
-9.992335 -5.921706 9.367043 0 255 0
-9.994783 -5.907876 9.383156 0 255 0
-9.804017 -5.483024 9.330501 0 255 0
-9.620984 -7.475512 7.358479 0 255 0
-9.492184 -7.191941 7.320302 0 255 0
-10.301404 -6.571345 9.483317 0 255 0
-9.565956 -5.778785 8.603553 0 255 0
-9.565956 -5.778785 8.603553 0 255 0
-9.539504 -5.764688 8.560375 0 255 0
-9.543393 -5.718379 8.605458 0 255 0
-9.550030 -5.627586 8.691809 0 255 0
-9.546694 -5.582988 8.720644 0 255 0
-9.499836 -5.500409 8.690279 0 255 0
-9.369415 -5.365088 8.530079 0 255 0
-9.561287 -5.271430 9.000123 0 255 0
-9.491852 -7.101169 7.392290 0 255 0
-9.545648 -7.139400 7.472446 0 255 0
-9.893588 -6.503718 8.697773 0 255 0
-10.093627 -6.573021 9.054167 0 255 0
-10.135533 -6.485257 9.210713 0 255 0
-10.192298 -6.489207 9.324427 0 255 0
-10.143281 -6.418409 9.280183 0 255 0
-9.609950 -6.087643 8.446869 0 255 0
-10.181133 -6.389141 9.381553 0 255 0
-9.515110 -7.213912 7.349917 0 255 0
-9.499908 -7.083893 7.422711 0 255 0
-10.224727 -6.570151 9.326397 0 255 0
-9.989252 -6.555466 8.853314 0 255 0
-10.275990 -6.542109 9.454394 0 255 0
-10.287039 -6.535238 9.482648 0 255 0
-10.286969 -6.535176 9.482553 0 255 0
-10.007385 -6.537036 8.905406 0 255 0
-9.853787 -6.450640 8.658315 0 255 0
-9.936004 -6.431219 8.843146 0 255 0
-9.561654 -5.747419 8.619806 0 255 0
-9.589061 -5.671595 8.736939 0 255 0
-9.584919 -5.638691 8.754756 0 255 0
-9.536084 -5.612420 8.675237 0 255 0
-9.548484 -5.584032 8.723495 0 255 0
-9.535846 -5.554432 8.721169 0 255 0
-9.475530 -5.462717 8.670406 0 255 0
-9.254140 -5.304627 8.341132 0 255 0
-9.445265 -5.121598 8.881187 0 255 0
-9.534536 -7.178625 7.418166 0 255 0
-9.992055 -6.558522 8.856639 0 255 0
-9.992055 -6.558522 8.856639 0 255 0
-10.223680 -6.551776 9.338954 0 255 0
-10.052085 -6.512547 9.017046 0 255 0
-9.701036 -5.761275 8.895701 0 255 0
-9.702861 -5.742561 8.914440 0 255 0
-9.597189 -5.707388 8.725021 0 255 0
-9.572261 -5.680325 8.695361 0 255 0
-9.593830 -5.672816 8.745782 0 255 0
-9.520010 -7.138702 7.420218 0 255 0
-10.212259 -6.565933 9.304104 0 255 0
-9.754990 -5.379299 9.312593 0 255 0
-9.342279 -5.322753 8.508101 0 255 0
-9.416980 -5.152313 8.798357 0 255 0
-9.437630 -5.135792 8.854103 0 255 0
-9.464944 -5.135525 8.910556 0 255 0
-9.481140 -5.055032 9.008346 0 255 0
-9.778236 -6.244292 8.667958 0 255 0
-10.823420 -7.473425 6.868373 255 255 0
-10.172515 -7.705603 7.191143 255 255 0
-10.901454 -7.446026 6.829818 255 255 0
-10.998959 -7.405978 6.779757 255 255 0
-9.448359 -6.928606 7.214159 255 255 0
-9.448907 -6.914482 7.209364 255 255 0
-9.339612 -5.501735 6.792304 255 255 0
-9.418624 -6.869308 7.206211 255 255 0
-9.376221 -6.787167 7.195663 255 255 0
-9.313190 -6.655118 7.176755 255 255 0
-11.749711 -6.795849 6.296347 255 255 0
-11.591999 -6.454421 6.245458 255 255 0
-11.312016 -5.794148 6.137539 255 255 0
-11.310773 -5.793293 6.137734 255 255 0
-11.300178 -5.765482 6.132733 255 255 0
-11.274692 -5.717944 6.126988 255 255 0
-11.844982 -7.012381 6.330426 255 255 0
-10.430188 -7.607460 7.061346 255 255 0
-9.799705 -7.601264 7.298973 255 255 0
-10.429907 -7.572824 7.050209 255 255 0
-9.754211 -7.541470 7.296854 255 255 0
-9.635301 -7.337472 7.275830 255 255 0
-9.639051 -7.311858 7.266089 255 255 0
-10.468730 -7.223582 6.922082 255 255 0
-9.949648 -7.137688 7.091496 255 255 0
-9.797154 -7.145593 7.152024 255 255 0
-9.824619 -7.137562 7.138977 255 255 0
-10.416811 -7.128168 6.910843 255 255 0
-9.954373 -7.112107 7.081396 255 255 0
-10.395637 -7.098530 6.909270 255 255 0
-9.567166 -7.063892 7.212918 255 255 0
-10.089716 -6.939711 6.973991 255 255 0
-9.434138 -6.912260 7.214257 255 255 0
-10.112895 -6.913568 6.956695 255 255 0
-10.069422 -6.908419 6.971547 255 255 0
-11.204849 -6.912677 6.541367 255 255 0
-11.212107 -6.929228 6.543981 255 255 0
-11.149633 -6.837801 6.538048 255 255 0
-11.139084 -6.810198 6.533097 255 255 0
-11.126853 -6.783252 6.528999 255 255 0
-11.126769 -6.709965 6.505240 255 255 0
-11.140600 -6.663160 6.484790 255 255 0
-10.823467 -6.646295 6.599853 255 255 0
-10.823467 -6.646295 6.599853 255 255 0
-10.151132 -6.579648 6.833765 255 255 0
-10.120824 -6.564621 6.840406 255 255 0
-11.237870 -6.619848 6.433758 255 255 0
-10.856377 -6.574203 6.563943 255 255 0
-10.125466 -6.530573 6.827590 255 255 0
-10.125466 -6.530573 6.827590 255 255 0
-10.125466 -6.530573 6.827590 255 255 0
-11.276600 -6.585882 6.408011 255 255 0
-9.168069 -6.341820 7.130211 255 255 0
-10.002103 -6.294919 6.797980 255 255 0
-10.576220 -6.301379 6.581862 255 255 0
-10.882189 -6.301217 6.465515 255 255 0
-10.878518 -6.274989 6.458396 255 255 0
-10.568144 -6.224242 6.559892 255 255 0
-9.011010 -6.023104 7.086447 255 255 0
-9.005916 -5.999897 7.080850 255 255 0
-9.001095 -5.991374 7.079915 255 255 0
-10.797565 -6.149152 6.448317 255 255 0
-8.946928 -5.844862 7.052944 255 255 0
-10.768507 -6.015954 6.416122 255 255 0
-10.726066 -5.977696 6.419835 255 255 0
-10.741605 -5.975456 6.413202 255 255 0
-9.836678 -5.854212 6.717795 255 255 0
-9.801748 -5.826790 6.722170 255 255 0
-10.533590 -5.880542 6.461454 255 255 0
-10.479519 -5.877660 6.481071 255 255 0
-11.395482 -5.979699 6.166049 255 255 0
-10.510398 -5.846420 6.459193 255 255 0
-10.496460 -5.809801 6.452604 255 255 0
-10.488101 -5.812903 6.456787 255 255 0
-10.488101 -5.812903 6.456787 255 255 0
-10.467994 -5.807835 6.462785 255 255 0
-10.467994 -5.807835 6.462785 255 255 0
-10.466641 -5.808046 6.463367 255 255 0
-11.035870 -5.803187 6.245433 255 255 0
-11.290800 -5.743990 6.129321 255 255 0
-9.663618 -5.475346 6.660586 255 255 0
-11.020604 -5.648471 6.201013 255 255 0
-10.564842 -5.533334 6.336866 255 255 0
-9.601078 -5.420992 6.666713 255 255 0
-10.555832 -5.486265 6.325011 255 255 0
-10.548840 -5.455279 6.317610 255 255 0
-11.194628 -5.523913 6.094434 255 255 0
-10.327489 -5.177996 6.311731 255 255 0
-10.456092 -5.111086 6.241131 255 255 0
-10.600036 -5.062278 6.170576 255 255 0
-10.656616 -5.036178 6.140597 255 255 0
-9.883932 -7.817744 7.337233 255 255 0
-9.867897 -7.758833 7.324204 255 255 0
-10.186461 -7.708640 7.186829 255 255 0
-10.327794 -7.641901 7.111444 255 255 0
-10.379600 -7.634274 7.089278 255 255 0
-10.456010 -7.599315 7.048886 255 255 0
-10.857364 -7.464408 6.852544 255 255 0
-10.832028 -7.472529 6.864810 255 255 0
-10.881433 -7.455243 6.840421 255 255 0
-10.906943 -7.446069 6.827746 255 255 0
-11.104211 -7.371684 6.728620 255 255 0
-11.073909 -7.380702 6.743065 255 255 0
-9.639884 -7.102503 7.197812 255 255 0
-11.160794 -7.354394 6.701501 255 255 0
-9.507099 -7.047550 7.230443 255 255 0
-11.167439 -7.345459 6.696075 255 255 0
-9.858598 -7.091626 7.111151 255 255 0
-9.744008 -7.052440 7.141984 255 255 0
-9.784130 -7.015369 7.114701 255 255 0
-9.947332 -7.007557 7.050134 255 255 0
-10.142190 -6.883633 6.935843 255 255 0
-10.663135 -6.817444 6.716351 255 255 0
-11.128932 -6.727546 6.510125 255 255 0
-10.820511 -6.565676 6.574806 255 255 0
-11.119484 -6.611715 6.476115 255 255 0
-10.886051 -6.578399 6.554026 255 255 0
-9.978139 -6.281775 6.802822 255 255 0
-11.360866 -6.521650 6.355133 255 255 0
-10.734627 -5.956177 6.409595 255 255 0
-10.680506 -5.894691 6.410206 255 255 0
-10.634265 -5.847415 6.412435 255 255 0
-10.445120 -5.794280 6.467078 255 255 0
-10.585808 -5.811870 6.419314 255 255 0
-9.648156 -5.498112 6.673853 255 255 0
-9.549146 -5.437991 6.691970 255 255 0
-10.704452 -5.742969 6.351853 255 255 0
-10.762136 -5.723217 6.323516 255 255 0
-9.678123 -5.383275 6.625185 255 255 0
-9.795781 -5.378418 6.578888 255 255 0
-10.325159 -5.154420 6.304965 255 255 0
-10.355312 -5.150485 6.292225 255 255 0
-10.325284 -5.156085 6.305457 255 255 0
-10.527210 -5.056565 6.196402 255 255 0
-10.097200 -7.737923 7.230261 255 255 0
-10.622504 -7.498620 6.952917 255 255 0
-11.053500 -7.364120 6.745440 255 255 0
-9.853548 -7.103364 7.116880 255 255 0
-11.520638 -7.221408 6.521560 255 255 0
-10.068296 -6.374261 6.798577 255 255 0
-10.049875 -6.347306 6.796829 255 255 0
-9.970836 -6.227768 6.788067 255 255 0
-10.191786 -5.948607 6.613465 255 255 0
-10.272038 -5.921303 6.574098 255 255 0
-10.707797 -5.808079 6.371717 255 255 0
-11.217559 -5.614552 6.115141 255 255 0
-11.218779 -5.585639 6.105292 255 255 0
-9.798276 -7.119081 7.142992 255 255 0
-11.498526 -7.229763 6.532676 255 255 0
-11.005205 -7.409739 6.778605 255 255 0
-10.389612 -6.938955 6.859759 255 255 0
-11.318786 -7.290879 6.620832 255 255 0
-11.405681 -7.259498 6.577618 255 255 0
-11.356756 -7.224792 6.584947 255 255 0
-11.430558 -7.250869 6.565361 255 255 0
-11.470067 -7.238076 6.546191 255 255 0
-10.843100 -6.621830 6.584449 255 255 0
-11.265592 -6.586098 6.412266 255 255 0
-11.355383 -6.537010 6.362202 255 255 0
-10.474274 -5.782989 6.452332 255 255 0
-9.907806 -5.349427 6.526898 255 255 0
-9.933110 -5.339120 6.513934 255 255 0
-10.750216 -5.755032 6.338375 255 255 0
-10.815597 -5.738521 6.308165 255 255 0
-10.290709 -5.155263 6.318332 255 255 0
-11.032194 -5.654326 6.198507 255 255 0
-9.897411 -7.762094 7.314044 255 255 0
-10.004636 -7.752776 7.270265 255 255 0
-10.106240 -7.681103 7.208379 255 255 0
-10.486098 -7.584693 7.032704 255 255 0
-9.585543 -7.148329 7.233343 255 255 0
-9.777567 -7.161680 7.164690 255 255 0
-9.828051 -7.099360 7.125271 255 255 0
-10.689792 -7.518050 6.933649 255 255 0
-9.995404 -7.096452 7.060719 255 255 0
-11.382485 -7.268001 6.589194 255 255 0
-10.679497 -6.843102 6.718462 255 255 0
-10.692879 -6.820055 6.705894 255 255 0
-10.693514 -6.808665 6.701955 255 255 0
-11.503307 -7.207976 6.523786 255 255 0
-11.517989 -7.194626 6.513872 255 255 0
-10.034150 -6.265367 6.776207 255 255 0
-11.171301 -6.862084 6.537695 255 255 0
-11.152253 -6.633368 6.470689 255 255 0
-11.194676 -6.611825 6.447571 255 255 0
-10.399199 -6.008926 6.554210 255 255 0
-11.328058 -6.567693 6.382548 255 255 0
-11.347985 -6.557039 6.371516 255 255 0
-10.270534 -5.919993 6.574245 255 255 0
-10.368997 -5.908500 6.533090 255 255 0
-10.402197 -5.906034 6.519670 255 255 0
-10.729160 -5.765700 6.349841 255 255 0
-10.871330 -5.840391 6.320050 255 255 0
-10.937450 -5.861370 6.301729 255 255 0
-11.061756 -5.781628 6.228595 255 255 0
-10.242186 -5.166003 6.340261 255 255 0
-11.005799 -5.663608 6.211553 255 255 0
-11.087049 -5.664117 6.180836 255 255 0
-11.097683 -5.665176 6.177138 255 255 0
-10.454753 -5.075085 6.229954 255 255 0
-10.549120 -5.085314 6.197406 255 255 0
-9.869126 -7.790869 7.334136 255 255 0
-9.840537 -7.778761 7.341072 255 255 0
-9.626607 -7.203187 7.235543 255 255 0
-9.566136 -7.170867 7.248035 255 255 0
-9.634257 -7.168192 7.221275 255 255 0
-10.664293 -7.526792 6.946178 255 255 0
-9.681425 -7.098950 7.180870 255 255 0
-9.702881 -7.071421 7.163777 255 255 0
-10.765470 -7.486579 6.894670 255 255 0
-9.921850 -7.121144 7.096692 255 255 0
-10.792500 -7.477917 6.881583 255 255 0
-9.728161 -6.969378 7.121045 255 255 0
-10.877017 -7.426231 6.832681 255 255 0
-9.911315 -7.008811 7.064230 255 255 0
-9.768882 -6.955236 7.100976 255 255 0
-10.902088 -7.418186 6.820540 255 255 0
-9.971800 -6.979980 7.031881 255 255 0
-9.930864 -6.979316 7.047225 255 255 0
-9.263784 -6.354655 7.097998 255 255 0
-11.385369 -7.220350 6.572629 255 255 0
-11.523041 -7.198816 6.513312 255 255 0
-10.903380 -6.605372 6.556195 255 255 0
-10.901267 -6.547549 6.538228 255 255 0
-10.111160 -5.975742 6.652918 255 255 0
-11.382925 -6.541164 6.353082 255 255 0
-10.391438 -5.976068 6.546494 255 255 0
-10.431901 -5.977336 6.531527 255 255 0
-10.431919 -5.977360 6.531527 255 255 0
-10.431919 -5.977360 6.531527 255 255 0
-10.406399 -5.956516 6.534461 255 255 0
-10.342945 -5.919158 6.546452 255 255 0
-10.290774 -5.906047 6.562025 255 255 0
-9.604312 -5.439141 6.671375 255 255 0
-9.775124 -5.396090 6.592476 255 255 0
-9.775124 -5.396090 6.592476 255 255 0
-9.775124 -5.396090 6.592476 255 255 0
-9.699680 -5.367556 6.611888 255 255 0
-10.768179 -5.888924 6.375011 255 255 0
-10.797817 -5.875955 6.359536 255 255 0
-10.784188 -5.740201 6.320648 255 255 0
-10.757650 -5.745982 6.332611 255 255 0
-9.982465 -5.319449 6.488789 255 255 0
-10.918721 -5.717146 6.262030 255 255 0
-11.099061 -5.606019 6.157410 255 255 0
-11.166768 -5.598049 6.129089 255 255 0
-10.213296 -7.702774 7.174724 255 255 0
-9.614664 -7.062143 7.194297 255 255 0
-9.690624 -7.025731 7.153605 255 255 0
-9.750760 -7.028864 7.131764 255 255 0
-9.716460 -7.026728 7.144108 255 255 0
-9.852542 -7.001168 7.084088 255 255 0
-9.825970 -7.007366 7.096200 255 255 0
-9.897767 -7.005312 7.068244 255 255 0
-9.881095 -6.996079 7.071584 255 255 0
-9.856195 -6.984049 7.077142 255 255 0
-9.833916 -6.981289 7.084714 255 255 0
-9.835582 -6.982607 7.084509 255 255 0
-9.860140 -6.937907 7.060665 255 255 0
-9.961862 -6.980216 7.035736 255 255 0
-9.924454 -6.945072 7.038546 255 255 0
-9.975110 -6.906042 7.006622 255 255 0
-10.095567 -6.914783 6.963675 255 255 0
-11.277638 -7.304212 6.640800 255 255 0
-10.032166 -6.536258 6.864897 255 255 0
-11.530385 -7.139801 6.491364 255 255 0
-11.564081 -7.137053 6.477664 255 255 0
-11.538817 -7.118193 6.481143 255 255 0
-11.537152 -7.101649 6.476407 255 255 0
-11.556863 -7.112507 6.472439 255 255 0
-11.555549 -7.094161 6.466983 255 255 0
-10.820685 -6.611091 6.589483 255 255 0
-9.535583 -5.818724 6.820718 255 255 0
-11.246097 -6.430634 6.369209 255 255 0
-11.282383 -6.399088 6.345176 255 255 0
-10.639764 -5.923805 6.435143 255 255 0
-10.787166 -5.625682 6.282341 255 255 0
-10.793123 -5.588275 6.267934 255 255 0
-11.006235 -5.537318 6.170391 255 255 0
-10.984741 -5.548075 6.182053 255 255 0
-10.953239 -5.527678 6.187405 255 255 0
-11.005303 -5.519036 6.164811 255 255 0
-10.962470 -5.503762 6.176133 255 255 0
-10.143379 -7.693144 7.198172 255 255 0
-10.140953 -7.666051 7.190300 255 255 0
-10.342192 -7.576354 7.084694 255 255 0
-9.868791 -7.005528 7.079328 255 255 0
-10.000829 -6.950237 7.011193 255 255 0
-9.920304 -6.915836 7.030632 255 255 0
-10.015612 -6.922980 6.996726 255 255 0
-10.081923 -6.920538 6.970729 255 255 0
-10.880503 -7.409121 6.825802 255 255 0
-10.851064 -7.388625 6.830338 255 255 0
-10.211210 -6.879816 6.908370 255 255 0
-8.954495 -5.886543 7.063597 255 255 0
-8.939207 -5.866315 7.062841 255 255 0
-8.963849 -5.861891 7.052040 255 255 0
-9.479176 -6.134756 6.944747 255 255 0
-9.466126 -6.125898 6.946832 255 255 0
-11.458157 -7.154691 6.523650 255 255 0
-11.242914 -6.411164 6.364099 255 255 0
-11.272373 -6.408583 6.352064 255 255 0
-10.277537 -5.464639 6.423767 255 255 0
-10.757024 -5.645232 6.300144 255 255 0
-10.990212 -5.255355 6.084950 255 255 0
-8.998841 -5.900191 7.051172 255 255 0
-10.479012 -7.571315 7.031054 255 255 0
-10.308681 -7.478403 7.065635 255 255 0
-10.315008 -7.444024 7.052070 255 255 0
-10.200489 -7.203279 7.017447 255 255 0
-10.178333 -7.206935 7.027054 255 255 0
-10.160631 -7.185444 7.026806 255 255 0
-9.858220 -7.027012 7.090319 255 255 0
-11.180506 -7.327135 6.685161 255 255 0
-11.142503 -7.322286 6.698030 255 255 0
-11.211590 -7.329943 6.674257 255 255 0
-10.075350 -6.951434 6.983257 255 255 0
-10.048400 -6.951362 6.993477 255 255 0
-10.405405 -6.755515 6.794208 255 255 0
-10.388979 -6.731905 6.792788 255 255 0
-10.217382 -6.633382 6.826027 255 255 0
-10.220677 -6.574694 6.805724 255 255 0
-10.719871 -6.624418 6.632128 255 255 0
-10.976439 -6.615408 6.531684 255 255 0
-10.952062 -6.607352 6.538334 255 255 0
-10.926423 -6.606933 6.547943 255 255 0
-10.912012 -6.624057 6.558980 255 255 0
-10.903952 -6.597907 6.553555 255 255 0
-10.900655 -6.612124 6.559422 255 255 0
-10.874156 -6.608593 6.568349 255 255 0
-10.878106 -6.599041 6.563746 255 255 0
-9.974663 -6.370897 6.833074 255 255 0
-10.918220 -6.574822 6.540637 255 255 0
-10.891618 -6.574799 6.550741 255 255 0
-9.398808 -6.154604 6.981736 255 255 0
-11.200427 -6.438845 6.389233 255 255 0
-11.176055 -6.422527 6.393200 255 255 0
-9.869555 -6.100748 6.785329 255 255 0
-9.841994 -6.100038 6.795574 255 255 0
-11.208882 -6.409071 6.376354 255 255 0
-11.184475 -6.408678 6.385504 255 255 0
-10.637576 -6.247766 6.541138 255 255 0
-9.953908 -6.078577 6.746070 255 255 0
-9.880176 -6.079133 6.774276 255 255 0
-11.196280 -6.387394 6.374108 255 255 0
-10.598680 -6.205256 6.542122 255 255 0
-10.353625 -5.922273 6.543403 255 255 0
-10.346740 -5.923943 6.546563 255 255 0
-10.079700 -5.842695 6.621687 255 255 0
-10.560461 -5.925674 6.465891 255 255 0
-10.424712 -5.889180 6.505642 255 255 0
-10.465759 -5.865369 6.482310 255 255 0
-10.600975 -5.832606 6.420281 255 255 0
-10.518035 -5.834399 6.452388 255 255 0
-10.554816 -5.726390 6.403346 255 255 0
-10.334828 -5.610392 6.449306 255 255 0
-10.481219 -5.539100 6.370521 255 255 0
-10.431689 -5.537509 6.388831 255 255 0
-10.416133 -5.514990 6.387434 255 255 0
-10.467928 -5.518010 6.368727 255 255 0
-10.961383 -5.044643 6.027507 255 255 0
-10.545076 -7.576226 7.007539 255 255 0
-10.317920 -7.496303 7.067934 255 255 0
-10.285524 -7.432921 7.059672 255 255 0
-11.036046 -7.266658 6.720435 255 255 0
-11.194156 -7.302314 6.671915 255 255 0
-10.453094 -6.719563 6.764412 255 255 0
-10.184911 -6.519697 6.801465 255 255 0
-10.123092 -5.989924 6.652987 255 255 0
-10.362840 -7.605495 7.086306 255 255 0
-10.365549 -7.558775 7.070110 255 255 0
-10.365564 -7.558802 7.070113 255 255 0
-10.670554 -7.494057 6.933173 255 255 0
-11.119484 -7.340599 6.712725 255 255 0
-11.219650 -7.298846 6.661099 255 255 0
-9.556480 -7.029265 7.205738 255 255 0
-11.320972 -7.277546 6.615673 255 255 0
-11.295405 -7.275468 6.624716 255 255 0
-11.206030 -7.272058 6.657579 255 255 0
-9.584197 -6.991873 7.183065 255 255 0
-9.581580 -7.008245 7.189375 255 255 0
-11.362868 -7.266730 6.596238 255 255 0
-9.630025 -6.974885 7.160132 255 255 0
-11.405777 -7.203168 6.559296 255 255 0
-11.433947 -7.191745 6.544880 255 255 0
-11.398122 -7.180983 6.555004 255 255 0
-9.984810 -6.936047 7.012675 255 255 0
-9.995628 -6.933813 7.007839 255 255 0
-11.443434 -7.160638 6.531177 255 255 0
-10.035634 -6.914143 6.986247 255 255 0
-11.497031 -7.132312 6.501610 255 255 0
-10.167212 -6.879956 6.925138 255 255 0
-10.173892 -6.830565 6.906566 255 255 0
-10.213255 -6.812313 6.885680 255 255 0
-10.025872 -6.714957 6.925298 255 255 0
-10.000674 -6.702855 6.930948 255 255 0
-10.103036 -6.493718 6.824151 255 255 0
-10.975681 -6.604820 6.528535 255 255 0
-10.061995 -6.419680 6.815717 255 255 0
-10.924018 -6.545475 6.528907 255 255 0
-10.941278 -6.566759 6.529255 255 255 0
-10.894231 -6.556112 6.543682 255 255 0
-9.959531 -6.348278 6.831483 255 255 0
-10.838544 -6.428317 6.523363 255 255 0
-9.445529 -6.126513 6.954860 255 255 0
-9.900736 -6.165934 6.794638 255 255 0
-9.879795 -6.172253 6.804648 255 255 0
-9.539627 -6.100753 6.910732 255 255 0
-10.718412 -6.150583 6.478866 255 255 0
-10.078532 -5.954864 6.658543 255 255 0
-9.530364 -5.838230 6.829033 255 255 0
-10.640198 -5.975573 6.451783 255 255 0
-9.525237 -5.774552 6.810311 255 255 0
-9.522579 -5.795865 6.818240 255 255 0
-10.624836 -5.952712 6.450201 255 255 0
-10.626575 -5.950369 6.448779 255 255 0
-9.532032 -5.755429 6.801520 255 255 0
-10.399300 -5.887837 6.514864 255 255 0
-10.408800 -5.866057 6.504184 255 255 0
-10.633306 -5.902958 6.430830 255 255 0
-10.610980 -5.833297 6.416703 255 255 0
-10.541793 -5.783369 6.426792 255 255 0
-10.570246 -5.770202 6.411704 255 255 0
-10.577056 -5.744858 6.400888 255 255 0
-10.742558 -5.669980 6.313676 255 255 0
-10.727763 -5.645987 6.311511 255 255 0
-11.189634 -5.508313 6.091267 255 255 0
-9.480191 -5.783415 6.830309 255 255 0
-10.252515 -6.925286 6.907431 255 255 0
-10.099613 -7.672104 7.207978 255 255 0
-10.100547 -7.655342 7.202181 255 255 0
-10.072824 -7.669071 7.217175 255 255 0
-10.264579 -7.629815 7.131549 255 255 0
-10.240493 -7.629169 7.140493 255 255 0
-10.238379 -7.610183 7.135133 255 255 0
-10.329785 -7.520792 7.071373 255 255 0
-11.063025 -7.338985 6.733660 255 255 0
-11.137623 -7.286049 6.688122 255 255 0
-11.527927 -7.177419 6.504509 255 255 0
-11.527847 -7.176916 6.504376 255 255 0
-11.498062 -7.180335 6.516807 255 255 0
-11.468551 -7.178998 6.527591 255 255 0
-11.587465 -7.160301 6.476322 255 255 0
-11.454306 -7.138572 6.519881 255 255 0
-11.427844 -7.149693 6.533549 255 255 0
-11.427963 -7.149642 6.533487 255 255 0
-11.427963 -7.149642 6.533487 255 255 0
-10.162834 -6.804313 6.902247 255 255 0
-10.134138 -6.543575 6.828514 255 255 0
-10.524064 -6.580791 6.692389 255 255 0
-10.085779 -6.484637 6.827762 255 255 0
-10.944957 -6.571892 6.529523 255 255 0
-10.121664 -6.471189 6.809757 255 255 0
-10.099902 -6.462128 6.815087 255 255 0
-10.090398 -6.434874 6.809853 255 255 0
-9.841116 -6.127151 6.804709 255 255 0
-10.627150 -5.854661 6.417492 255 255 0
-10.597761 -5.762705 6.398811 255 255 0
-10.547732 -5.748431 6.413193 255 255 0
-10.246201 -5.467595 6.436638 255 255 0
-10.039605 -7.745372 7.254570 255 255 0
-10.195709 -7.668144 7.170167 255 255 0
-10.168077 -7.667313 7.180400 255 255 0
-10.356564 -7.632425 7.097434 255 255 0
-10.240853 -7.609709 7.134039 255 255 0
-10.515030 -7.589921 7.023405 255 255 0
-10.451932 -7.558848 7.037301 255 255 0
-10.896920 -7.412518 6.820665 255 255 0
-10.903973 -7.414454 6.818613 255 255 0
-10.864347 -7.429369 6.838515 255 255 0
-10.898298 -7.392565 6.813664 255 255 0
-10.878479 -7.389820 6.820305 255 255 0
-10.902369 -7.370153 6.804842 255 255 0
-10.876890 -7.370500 6.814638 255 255 0
-11.095735 -7.357612 6.727274 255 255 0
-11.545594 -7.161572 6.492650 255 255 0
-11.589735 -7.148400 6.471597 255 255 0
-11.779757 -7.089311 6.380190 255 255 0
-11.716806 -7.005924 6.377048 255 255 0
-9.931314 -6.502731 6.892346 255 255 0
-9.928063 -6.502872 6.893627 255 255 0
-9.968269 -6.488536 6.873692 255 255 0
-10.719346 -6.587949 6.620488 255 255 0
-11.251177 -6.393336 6.355171 255 255 0
-10.565384 -6.114234 6.525231 255 255 0
-10.565384 -6.114234 6.525231 255 255 0
-10.565384 -6.114234 6.525231 255 255 0
-8.899932 -5.764365 7.044675 255 255 0
-8.905649 -5.704383 7.023030 255 255 0
-10.626271 -5.804855 6.401659 255 255 0
-10.699332 -5.649542 6.323471 255 255 0
-10.277313 -5.537104 6.447376 255 255 0
-10.958934 -5.536180 6.188000 255 255 0
-10.937023 -5.539306 6.197343 255 255 0
-10.982688 -5.267434 6.091732 255 255 0
-11.263511 -7.267784 6.634344 255 255 0
-10.650182 -6.390749 6.582762 255 255 0
-9.407994 -6.134699 6.971784 255 255 0
-9.580117 -6.078862 6.888236 255 255 0
-9.948240 -7.766139 7.296038 255 255 0
-9.977762 -7.756115 7.281563 255 255 0
-10.937286 -7.345637 6.783611 255 255 0
-11.444251 -7.112464 6.515228 255 255 0
-10.735900 -6.411507 6.556920 255 255 0
-9.551565 -6.079781 6.899387 255 255 0
-10.103426 -5.955798 6.649384 255 255 0
-10.780504 -5.625641 6.284860 255 255 0
-10.423209 -7.625398 7.069821 255 255 0
-10.738947 -7.503459 6.910229 255 255 0
-10.758418 -7.481019 6.895545 255 255 0
-10.751916 -7.503642 6.905359 255 255 0
-10.858892 -7.453609 6.848457 255 255 0
-10.888498 -7.446993 6.835057 255 255 0
-10.856243 -7.367496 6.821510 255 255 0
-10.875574 -7.363906 6.812997 255 255 0
-10.923232 -7.341605 6.787644 255 255 0
-9.606367 -7.038145 7.189660 255 255 0
-9.314168 -6.654951 7.176329 255 255 0
-9.098818 -6.209723 7.113652 255 255 0
-10.607597 -5.926793 6.448339 255 255 0
-10.633379 -5.778341 6.390349 255 255 0
-10.898471 -5.530603 6.209171 255 255 0
-10.213595 -7.608410 7.143979 255 255 0
-10.448513 -7.532424 7.030022 255 255 0
-10.631170 -6.272057 6.551458 255 255 0
-9.959736 -6.633434 6.923973 255 255 0
-9.193324 -6.392454 7.137050 255 255 0
-10.247458 -5.417566 6.419919 255 255 0
-9.937162 -7.793388 7.309094 255 255 0
-10.383432 -7.623618 7.084362 255 255 0
-10.811243 -7.477612 6.874360 255 255 0
-8.879690 -5.746174 7.046463 255 255 0
-10.972594 -5.229581 6.083281 255 255 0
-10.704666 -7.419450 6.895989 255 255 0
-12.116598 -6.794124 6.726609 0 0 255
-12.106934 -6.810568 6.695492 0 0 255
-12.229020 -6.790210 6.954180 0 0 255
-12.227273 -6.771677 6.963976 0 0 255
-12.174915 -6.707881 6.905042 0 0 255
-12.306138 -6.740034 7.144341 0 0 255
-12.220128 -6.693755 7.005567 0 0 255
-12.275246 -6.699732 7.111477 0 0 255
-12.250943 -6.680404 7.076749 0 0 255
-12.228435 -6.661932 7.044993 0 0 255
-12.273778 -6.654243 7.141162 0 0 255
-12.244392 -6.645171 7.088914 0 0 255
-12.188546 -6.636660 6.983368 0 0 255
-12.159704 -6.614062 6.941908 0 0 255
-12.162318 -6.618972 6.943612 0 0 255
-12.378187 -6.666741 7.340947 0 0 255
-12.279994 -6.655339 7.152804 0 0 255
-12.192290 -6.600881 7.016505 0 0 255
-12.170768 -6.587605 6.982997 0 0 255
-12.382768 -6.653512 7.359588 0 0 255
-12.177209 -6.553701 7.020186 0 0 255
-12.138681 -6.562179 6.937079 0 0 255
-12.153068 -6.538408 6.982888 0 0 255
-12.125874 -6.518892 6.942514 0 0 255
-12.110317 -6.514974 6.914221 0 0 255
-12.172624 -6.495494 7.052757 0 0 255
-12.156214 -6.502352 7.015033 0 0 255
-12.130360 -6.483904 6.976570 0 0 255
-12.109182 -6.471574 6.943071 0 0 255
-12.458844 -6.593139 7.554978 0 0 255
-12.458844 -6.593139 7.554978 0 0 255
-12.195600 -6.483256 7.107470 0 0 255
-12.172475 -6.461565 7.076791 0 0 255
-12.138545 -6.454714 7.013867 0 0 255
-12.111075 -6.433986 6.973812 0 0 255
-12.072688 -6.440217 6.892596 0 0 255
-12.133387 -6.426387 7.023867 0 0 255
-12.052415 -6.397277 6.882854 0 0 255
-12.092482 -6.384696 6.971979 0 0 255
-12.080277 -6.369468 6.958500 0 0 255
-12.088782 -6.384981 6.964380 0 0 255
-12.017336 -6.356845 6.841711 0 0 255
-12.101436 -6.356096 7.010391 0 0 255
-11.639568 -6.143988 6.239074 0 0 255
-11.700518 -6.141563 6.362670 0 0 255
-11.659406 -6.148111 6.275778 0 0 255
-11.742666 -6.121776 6.461126 0 0 255
-11.696566 -6.123073 6.368026 0 0 255
-11.782622 -6.069445 6.578537 0 0 255
-11.838475 -6.093333 6.673073 0 0 255
-11.823006 -6.075080 6.655235 0 0 255
-11.793031 -6.063979 6.603264 0 0 255
-11.810091 -6.064170 6.637235 0 0 255
-11.805546 -6.059754 6.631317 0 0 255
-11.837777 -6.064638 6.692252 0 0 255
-11.833922 -6.046197 6.697769 0 0 255
-11.822111 -6.061927 6.662876 0 0 255
-11.843591 -6.030405 6.728425 0 0 255
-11.817573 -6.031801 6.675406 0 0 255
-11.817004 -6.031130 6.674750 0 0 255
-11.817004 -6.031130 6.674750 0 0 255
-11.856157 -6.006650 6.770580 0 0 255
-11.833371 -5.955053 6.762024 0 0 255
-11.815839 -5.911602 6.758130 0 0 255
-11.767991 -5.824544 6.724893 0 0 255
-11.916475 -5.866743 6.991502 0 0 255
-11.752674 -5.782371 6.724511 0 0 255
-11.737600 -5.740446 6.724438 0 0 255
-12.084278 -5.876583 7.319931 0 0 255
-12.069808 -5.881402 7.287546 0 0 255
-11.722449 -5.698308 6.724363 0 0 255
-12.104961 -5.870356 7.365748 0 0 255
-12.097029 -5.868884 7.350946 0 0 255
-11.847222 -5.741530 6.942827 0 0 255
-12.096637 -5.839999 7.370872 0 0 255
-11.831947 -5.695392 6.945375 0 0 255
-11.402400 -5.488231 6.235128 0 0 255
-11.366246 -5.462014 6.181646 0 0 255
-12.100151 -5.817512 7.394026 0 0 255
-11.811519 -5.639486 6.944620 0 0 255
-11.355472 -5.422451 6.188474 0 0 255
-11.339763 -5.421766 6.157557 0 0 255
-11.439283 -5.438655 6.344419 0 0 255
-11.417177 -5.432610 6.304559 0 0 255
-11.361533 -5.403259 6.214354 0 0 255
-12.128373 -5.771416 7.483504 0 0 255
-11.783108 -5.572214 6.936055 0 0 255
-11.486306 -5.431509 6.443555 0 0 255
-11.415882 -5.344517 6.365137 0 0 255
-11.418234 -5.303804 6.399031 0 0 255
-11.179482 -5.175035 6.014030 0 0 255
-12.344425 -5.729673 7.945388 0 0 255
-12.298433 -5.708425 7.868674 0 0 255
-12.312719 -5.713617 7.893513 0 0 255
-12.267489 -5.671792 7.833075 0 0 255
-11.542446 -5.276030 6.667285 0 0 255
-11.543615 -5.277206 6.668781 0 0 255
-11.436996 -5.245540 6.478321 0 0 255
-11.545775 -5.248155 6.693930 0 0 255
-11.542740 -5.260869 6.678743 0 0 255
-11.453416 -5.182631 6.556260 0 0 255
-11.453416 -5.182631 6.556260 0 0 255
-11.453416 -5.182631 6.556260 0 0 255
-11.097455 -4.977946 5.991362 0 0 255
-12.406430 -5.643372 8.131236 0 0 255
-11.085241 -4.922633 6.006608 0 0 255
-11.093539 -4.951771 6.002299 0 0 255
-11.074716 -4.893295 6.006600 0 0 255
-11.671454 -5.175858 6.997042 0 0 255
-11.662052 -5.203300 6.958565 0 0 255
-11.627955 -5.166337 6.916903 0 0 255
-11.104757 -4.876522 6.078690 0 0 255
-11.090493 -4.885543 6.043702 0 0 255
-11.081669 -4.868282 6.038435 0 0 255
-11.077849 -4.877603 6.024118 0 0 255
-11.080635 -4.898078 6.015004 0 0 255
-11.716777 -5.169002 7.092571 0 0 255
-11.713778 -5.177441 7.080523 0 0 255
-11.686831 -5.180094 7.024747 0 0 255
-11.678115 -5.166630 7.016974 0 0 255
-11.657763 -5.166106 6.976659 0 0 255
-11.631099 -5.135206 6.945510 0 0 255
-11.587085 -5.121502 6.867337 0 0 255
-11.552489 -5.084015 6.825054 0 0 255
-11.127482 -4.845672 6.146246 0 0 255
-11.088770 -4.838367 6.074086 0 0 255
-11.088582 -4.866535 6.053511 0 0 255
-11.084907 -4.862314 6.049189 0 0 255
-11.753356 -5.159337 7.172633 0 0 255
-11.727420 -5.152154 7.125930 0 0 255
-11.720265 -5.151953 7.111770 0 0 255
-11.641680 -5.111586 6.983602 0 0 255
-11.599441 -5.089723 6.914831 0 0 255
-11.568027 -5.064058 6.870428 0 0 255
-11.149785 -4.813346 6.214015 0 0 255
-11.143100 -4.829273 6.189228 0 0 255
-11.096565 -4.820145 6.102737 0 0 255
-11.769390 -5.151182 7.210536 0 0 255
-11.728142 -5.134975 7.139692 0 0 255
-11.527514 -5.010334 6.827953 0 0 255
-11.171788 -4.810394 6.260123 0 0 255
-11.155226 -4.790065 6.241587 0 0 255
-11.131288 -4.783188 6.198657 0 0 255
-11.122729 -4.797525 6.171266 0 0 255
-11.791346 -5.105409 7.287256 0 0 255
-11.785597 -5.108450 7.273580 0 0 255
-11.773808 -5.124827 7.238267 0 0 255
-11.757649 -5.104154 7.220788 0 0 255
-11.743438 -5.110673 7.187703 0 0 255
-11.169391 -4.785860 6.272925 0 0 255
-11.143640 -4.774043 6.229910 0 0 255
-11.801250 -5.088181 7.319414 0 0 255
-11.806555 -5.109872 7.314465 0 0 255
-11.784820 -5.108906 7.271701 0 0 255
-11.201051 -4.745565 6.365113 0 0 255
-11.189452 -4.757605 6.333292 0 0 255
-11.177511 -4.749282 6.315386 0 0 255
-11.978168 -5.155980 7.624506 0 0 255
-11.810446 -5.083339 7.341270 0 0 255
-11.750944 -5.049284 7.246729 0 0 255
-11.244129 -4.737473 6.457042 0 0 255
-11.224407 -4.719827 6.430265 0 0 255
-11.225885 -4.721090 6.432317 0 0 255
-11.212543 -4.732394 6.397537 0 0 255
-11.818936 -5.055997 7.377851 0 0 255
-11.819224 -5.051325 7.381778 0 0 255
-11.816944 -5.027090 7.394597 0 0 255
-11.221393 -4.700001 6.438457 0 0 255
-11.210216 -4.707736 6.410564 0 0 255
-12.084577 -5.152937 7.839431 0 0 255
-12.059086 -5.130099 7.804846 0 0 255
-12.027359 -5.139116 7.734950 0 0 255
-11.957926 -5.086897 7.633577 0 0 255
-11.934183 -5.074831 7.594758 0 0 255
-11.786531 -4.970764 7.374183 0 0 255
-11.229055 -4.688901 6.461735 0 0 255
-12.092165 -5.126074 7.873867 0 0 255
-12.073418 -5.113028 7.845742 0 0 255
-12.033802 -5.100096 7.775808 0 0 255
-12.047306 -5.125239 7.784779 0 0 255
-11.963970 -5.063978 7.662094 0 0 255
-11.936148 -5.034517 7.627595 0 0 255
-11.908951 -5.012184 7.589234 0 0 255
-11.786022 -4.946898 7.390279 0 0 255
-11.799808 -4.971755 7.400015 0 0 255
-12.081530 -5.101340 7.870337 0 0 255
-11.985167 -5.044043 7.718766 0 0 255
-11.794713 -4.931491 7.418702 0 0 255
-11.780175 -4.918313 7.399085 0 0 255
-11.317893 -4.623774 6.686050 0 0 255
-12.159513 -5.108101 8.021403 0 0 255
-12.104507 -5.076551 7.934055 0 0 255
-12.090100 -5.070011 7.909941 0 0 255
-12.047205 -5.025750 7.855917 0 0 255
-12.031990 -5.027303 7.824385 0 0 255
-11.893867 -4.960708 7.595989 0 0 255
-11.758196 -4.873237 7.387464 0 0 255
-11.330818 -4.613751 6.719079 0 0 255
-11.327992 -4.613317 6.713741 0 0 255
-11.314536 -4.601861 6.695053 0 0 255
-11.302495 -4.611043 6.664392 0 0 255
-12.066325 -5.011242 7.904547 0 0 255
-12.053647 -5.007526 7.881865 0 0 255
-12.012090 -4.979932 7.818566 0 0 255
-12.000660 -4.991778 7.787219 0 0 255
-11.957394 -4.950851 7.730065 0 0 255
-11.915401 -4.936807 7.656179 0 0 255
-11.722606 -4.802201 7.367246 0 0 255
-11.351377 -4.581038 6.783640 0 0 255
-11.338757 -4.599496 6.745169 0 0 255
-11.327891 -4.593418 6.727806 0 0 255
-12.167367 -5.066566 8.066887 0 0 255
-12.136863 -5.034299 8.029038 0 0 255
-12.075307 -5.000878 7.929936 0 0 255
-12.057505 -4.983540 7.906779 0 0 255
-12.037004 -4.981986 7.866907 0 0 255
-12.024340 -4.970834 7.849582 0 0 255
-11.904799 -4.896840 7.663642 0 0 255
-11.711335 -4.765039 7.371363 0 0 255
-11.357405 -4.559387 6.811216 0 0 255
-11.337127 -4.566659 6.765458 0 0 255
-12.087888 -4.986475 7.965416 0 0 255
-12.069768 -4.968096 7.942369 0 0 255
-12.032954 -4.959383 7.875015 0 0 255
-11.697119 -4.724215 7.372211 0 0 255
-11.382167 -4.541573 6.873496 0 0 255
-11.368740 -4.549735 6.840798 0 0 255
-11.362391 -4.550051 6.827878 0 0 255
-12.147478 -4.967751 8.097983 0 0 255
-12.086108 -4.947291 7.989955 0 0 255
-11.407341 -4.523368 6.936881 0 0 255
-11.396172 -4.534335 6.906684 0 0 255
-12.171137 -4.954449 8.154821 0 0 255
-12.163313 -4.966469 8.130563 0 0 255
-12.115167 -4.938513 8.054348 0 0 255
-12.112240 -4.940275 8.047233 0 0 255
-12.083788 -4.918102 8.006248 0 0 255
-12.005748 -4.857031 7.894017 0 0 255
-11.450017 -4.500625 7.038510 0 0 255
-11.439257 -4.510006 7.010270 0 0 255
-11.431242 -4.507575 6.995991 0 0 255
-11.418826 -4.513963 6.966588 0 0 255
-11.645932 -4.597854 7.360483 0 0 255
-11.611910 -4.563564 7.317052 0 0 255
-11.486276 -4.500484 7.111104 0 0 255
-11.458662 -4.489591 7.063707 0 0 255
-11.449705 -4.485396 7.048809 0 0 255
-11.440146 -4.494209 7.023378 0 0 255
-11.442950 -4.499432 7.025238 0 0 255
-11.494352 -4.466849 7.151373 0 0 255
-11.484326 -4.476598 7.124336 0 0 255
-11.459231 -4.475207 7.075157 0 0 255
-11.514807 -4.446735 7.206686 0 0 255
-11.505505 -4.458230 7.179847 0 0 255
-11.478533 -4.437253 7.140966 0 0 255
-11.478355 -4.456616 7.126725 0 0 255
-11.576198 -4.454849 7.323611 0 0 255
-11.538188 -4.430068 7.265387 0 0 255
-11.525800 -4.437820 7.235060 0 0 255
-11.551008 -4.423919 7.295427 0 0 255
-11.631081 -4.401893 7.471308 0 0 255
-11.611295 -4.398350 7.434291 0 0 255
-11.588511 -4.389980 7.394743 0 0 255
-11.599878 -4.396434 7.412841 0 0 255
-11.597252 -4.391198 7.411344 0 0 255
-11.568020 -4.396814 7.348873 0 0 255
-11.640669 -4.389530 7.499345 0 0 255
-11.618514 -4.366335 7.471683 0 0 255
-11.616258 -4.392411 7.448473 0 0 255
-11.568843 -4.367081 7.371841 0 0 255
-11.653311 -4.355901 7.548733 0 0 255
-11.670233 -4.353909 7.583993 0 0 255
-11.676369 -4.337032 7.608365 0 0 255
-11.677702 -4.341159 7.608069 0 0 255
-11.654062 -4.338641 7.562612 0 0 255
-11.664780 -4.346452 7.578440 0 0 255
-11.632782 -4.338163 7.520411 0 0 255
-11.695139 -4.315595 7.661261 0 0 255
-11.702478 -4.325742 7.668662 0 0 255
-11.688958 -4.331862 7.637241 0 0 255
-11.724396 -4.304970 7.727373 0 0 255
-11.700296 -4.294822 7.686471 0 0 255
-11.709778 -4.309278 7.695061 0 0 255
-11.748105 -4.286242 7.788206 0 0 255
-11.741044 -4.304425 7.761051 0 0 255
-11.823197 -4.303234 7.926153 0 0 255
-11.792046 -4.277105 7.882607 0 0 255
-11.794271 -4.276054 7.887813 0 0 255
-11.769341 -4.274616 7.839000 0 0 255
-11.758853 -4.285485 7.810235 0 0 255
-11.816845 -4.272878 7.935219 0 0 255
-11.788596 -4.278217 7.874915 0 0 255
-11.866130 -4.263447 8.040517 0 0 255
-11.841352 -4.275224 7.982536 0 0 255
-11.376815 -5.254035 6.351912 0 0 255
-11.385201 -5.265175 6.360689 0 0 255
-11.929041 -4.921285 7.694581 0 0 255
-12.055875 -6.933733 6.505093 0 0 255
-12.099231 -6.935994 6.590154 0 0 255
-12.098047 -6.923607 6.596669 0 0 255
-12.174748 -6.863480 6.793136 0 0 255
-12.207849 -6.835737 6.879207 0 0 255
-12.235040 -6.818967 6.945591 0 0 255
-12.232674 -6.814757 6.943883 0 0 255
-12.212558 -6.823827 6.897162 0 0 255
-12.400035 -6.609707 7.425523 0 0 255
-12.456473 -6.615574 7.534153 0 0 255
-12.452756 -6.599323 7.538374 0 0 255
-12.711173 -6.111900 8.404544 0 0 255
-11.115340 -4.815938 6.143291 0 0 255
-12.436055 -5.668816 8.172223 0 0 255
-12.116343 -4.777915 8.171861 0 0 255
-12.203515 -6.858297 6.854363 0 0 255
-12.384692 -6.698224 7.331374 0 0 255
-12.382820 -5.687853 8.052140 0 0 255
-12.607158 -5.875176 8.366333 0 0 255
-12.447556 -5.514397 8.305944 0 0 255
-11.929149 -6.790070 6.354746 0 0 255
-11.887414 -6.734616 6.311071 0 0 255
-11.836367 -6.608987 6.299097 0 0 255
-12.229836 -6.592051 7.097904 0 0 255
-11.821640 -6.568614 6.298602 0 0 255
-11.795238 -6.514041 6.284950 0 0 255
-12.690825 -6.326402 8.210049 0 0 255
-11.590677 -6.051789 6.207439 0 0 255
-11.606559 -6.071848 6.224809 0 0 255
-11.590692 -6.073944 6.191582 0 0 255
-12.257607 -6.071080 7.526997 0 0 255
-12.210114 -6.050135 7.447062 0 0 255
-11.564034 -5.994850 6.195001 0 0 255
-12.387107 -6.045033 7.804587 0 0 255
-11.548983 -5.967046 6.184847 0 0 255
-12.367541 -6.007267 7.792549 0 0 255
-11.514079 -5.879644 6.177739 0 0 255
-11.494945 -5.835516 6.171125 0 0 255
-11.501785 -5.853792 6.171696 0 0 255
-12.613313 -5.902948 8.358725 0 0 255
-11.485170 -5.817121 6.164773 0 0 255
-11.469516 -5.778039 6.161500 0 0 255
-11.462411 -5.769619 6.153333 0 0 255
-12.360775 -5.504343 8.139654 0 0 255
-12.137867 -5.479377 7.711896 0 0 255
-12.125709 -5.415398 7.733465 0 0 255
-11.263267 -5.338099 6.064614 0 0 255
-11.269647 -5.348957 6.069584 0 0 255
-11.277258 -5.308026 6.114150 0 0 255
-11.269403 -5.318190 6.091156 0 0 255
-11.514164 -5.269832 6.615187 0 0 255
-11.665630 -5.159378 6.997214 0 0 255
-11.658333 -5.175041 6.971392 0 0 255
-11.637241 -5.124066 6.965778 0 0 255
-11.591312 -5.121624 6.875704 0 0 255
-11.581406 -5.132643 6.847995 0 0 255
-11.664289 -5.112684 7.028015 0 0 255
-11.933959 -5.106028 7.571940 0 0 255
-11.654886 -5.082773 7.030667 0 0 255
-12.003856 -5.051351 7.750893 0 0 255
-12.224930 -5.047601 8.195575 0 0 255
-11.521905 -4.974777 6.842236 0 0 255
-11.777932 -4.950843 7.371272 0 0 255
-11.500973 -4.925403 6.835791 0 0 255
-11.767414 -4.921240 7.371471 0 0 255
-11.487880 -4.896711 6.830188 0 0 255
-11.888059 -4.892494 7.633291 0 0 255
-11.871410 -4.887459 7.603616 0 0 255
-11.750648 -4.870836 7.374098 0 0 255
-11.465887 -4.814479 6.845185 0 0 255
-11.850356 -4.836015 7.598413 0 0 255
-11.979368 -4.813180 7.872716 0 0 255
-11.851720 -4.809888 7.619872 0 0 255
-12.057488 -4.796751 8.040687 0 0 255
-12.078687 -4.704403 8.149287 0 0 255
-11.798735 -4.677984 7.608522 0 0 255
-11.741341 -4.592077 7.555378 0 0 255
-11.489592 -4.563788 7.072337 0 0 255
-11.468947 -4.572920 7.024518 0 0 255
-11.531367 -4.489772 7.208935 0 0 255
-11.686242 -4.400630 7.582500 0 0 255
-11.924572 -4.352366 8.093603 0 0 255
-12.099443 -6.246439 7.085039 0 0 255
-12.202982 -6.062305 7.424079 0 0 255
-11.575644 -6.024704 6.196805 0 0 255
-11.578885 -6.024262 6.203606 0 0 255
-12.561200 -5.847970 8.293960 0 0 255
-11.500273 -5.270122 6.587202 0 0 255
-11.465628 -5.121310 6.624647 0 0 255
-12.263707 -5.119581 8.221487 0 0 255
-12.241633 -5.058709 8.221004 0 0 255
-11.754073 -4.576571 7.591952 0 0 255
-11.805315 -6.521708 6.299600 0 0 255
-11.790387 -6.490682 6.292006 0 0 255
-11.168715 -5.118695 6.032905 0 0 255
-12.075821 -5.310646 7.708839 0 0 255
-12.131859 -6.325169 7.093392 0 0 255
-12.116327 -6.315547 7.069239 0 0 255
-12.111382 -6.274839 7.088541 0 0 255
-12.478701 -6.241330 7.846949 0 0 255
-11.591203 -6.031434 6.223088 0 0 255
-12.436322 -6.187344 7.800932 0 0 255
-11.543403 -5.943621 6.190489 0 0 255
-11.452339 -5.772073 6.131438 0 0 255
-12.162902 -5.515328 7.736169 0 0 255
-12.404244 -5.479776 8.244178 0 0 255
-11.156197 -5.090320 6.028224 0 0 255
-11.132591 -5.051445 6.008906 0 0 255
-11.133286 -5.011946 6.038617 0 0 255
-11.113144 -5.016270 5.995248 0 0 255
-11.122076 -4.974848 6.042809 0 0 255
-11.900027 -4.888031 7.660418 0 0 255
-11.767810 -4.596404 7.605194 0 0 255
-12.071852 -6.903543 6.558685 0 0 255
-12.061553 -6.902733 6.538676 0 0 255
-12.047937 -6.898494 6.514492 0 0 255
-12.106580 -6.858120 6.660689 0 0 255
-12.090672 -6.872807 6.618353 0 0 255
-12.070884 -6.892889 6.564390 0 0 255
-12.037536 -6.895112 6.496124 0 0 255
-12.116259 -6.843194 6.690741 0 0 255
-12.123367 -6.844295 6.704166 0 0 255
-12.109200 -6.842189 6.677350 0 0 255
-12.320559 -6.676681 7.218601 0 0 255
-11.442275 -5.458693 6.336032 0 0 255
-11.481159 -5.292603 6.532869 0 0 255
-11.105250 -4.961115 6.019015 0 0 255
-11.108727 -4.916516 6.057946 0 0 255
-12.062971 -6.920615 6.528687 0 0 255
-12.376681 -6.635819 7.360109 0 0 255
-12.400888 -6.628551 7.413717 0 0 255
-11.490732 -5.280983 6.560341 0 0 255
-11.450302 -5.316852 6.453789 0 0 255
-11.439363 -5.324352 6.426540 0 0 255
-11.469170 -5.283136 6.515687 0 0 255
-11.647812 -5.186679 6.942013 0 0 255
-11.598176 -5.108098 6.899124 0 0 255
-11.487548 -4.876737 6.843847 0 0 255
-12.396398 -6.642823 7.394503 0 0 255
-12.296847 -6.147175 7.550887 0 0 255
-11.487464 -5.262285 6.567216 0 0 255
-11.477570 -5.271307 6.540965 0 0 255
-11.770408 -4.169135 7.916768 0 0 255
-12.220365 -5.066996 8.172538 0 0 255
-12.085999 -6.224345 7.074002 0 0 255
-12.151212 -6.823936 6.774434 0 0 255
-11.452081 -5.252100 6.503778 0 0 255
-11.433625 -5.254085 6.465456 0 0 255
-11.486211 -5.221459 6.593984 0 0 255
-12.489396 -5.813156 8.175364 0 0 255
-12.323076 -5.260547 8.239101 0 0 255
-12.274402 -5.148696 8.221990 0 0 255
-12.335711 -5.295145 8.239555 0 0 255
-11.521540 -5.620804 6.378259 0 0 255
-11.693583 -4.430930 7.575447 0 0 255
-11.538654 -5.966524 6.164572 0 0 255
-11.420144 -5.718107 6.105767 0 0 255
-11.822751 -6.605239 6.274563 0 0 255
-11.779176 -6.501329 6.261952 0 0 255
-11.793786 -6.507838 6.286496 0 0 255
-11.761628 -6.488207 6.236277 0 0 255
-11.761759 -6.436537 6.273592 0 0 255
-11.747247 -6.430781 6.248705 0 0 255
-11.747566 -6.412372 6.262546 0 0 255
-11.446334 -5.777674 6.115414 0 0 255
