ply
format ascii 1.0
element vertex 748
property float x
property float y
property float z
property float nx
property float ny
property float nz
property uchar diffuse_red
property uchar diffuse_green
property uchar diffuse_blue
end_header
5.40287 5.82517 -2.8792 -0.0488488 -0.733294 0.678155 172 182 81
5.41269 5.82817 -2.88953 0.0202042 -0.999029 -0.0391477 116 120 53
5.38068 5.83508 -2.87379 -0.0590627 -0.983401 0.171561 209 226 93
5.36364 5.83334 -2.8833 0.0455342 -0.902797 0.427649 112 117 54
5.35463 5.82673 -2.86525 -0.297853 -0.935941 0.187878 185 198 83
5.32972 5.82672 -2.85495 -0.0757689 -0.984633 -0.157345 177 190 78
5.30805 5.83104 -2.86547 -0.115058 -0.972658 -0.201739 90 89 55
5.28865 5.82794 -2.84721 -0.0887205 -0.980273 -0.176617 91 91 51
5.26711 5.82933 -2.85623 -0.124674 -0.966346 -0.225015 79 75 59
5.26267 5.83277 -2.85878 -0.0925332 -0.974356 -0.205103 77 74 59
5.24767 5.82295 -2.83612 0.17404 -0.907827 -0.381522 73 70 56
5.21189 5.83221 -2.84006 0.237146 -0.960868 -0.143159 66 65 53
5.19188 5.8308 -2.83253 -0.268342 -0.931172 0.246802 60 59 48
5.15781 5.83682 -2.83545 -0.300993 -0.952804 0.0395907 29 27 17
5.06698 5.8161 -2.79912 0.501069 -0.853747 0.141582 77 80 48
5.05268 5.8113 -2.78901 0.462498 -0.876912 0.130845 146 160 68
5.03675 5.80786 -2.77958 0.101845 -0.994792 -0.00411061 224 248 92
4.31143 5.78706 -2.60133 0.671922 -0.724131 0.155416 228 247 89
4.29913 5.77246 -2.60029 0.767394 -0.616918 0.174693 113 116 52
4.27312 5.77896 -2.58263 -0.0143868 -0.990068 -0.139849 73 72 53
4.24452 5.78717 -2.57916 -0.354632 -0.934975 0.00766863 69 68 56
4.23961 5.79003 -2.59111 -0.281401 -0.947753 -0.150259 65 64 52
4.19802 5.79941 -2.59844 0.0276551 -0.999124 0.0314125 43 43 32
4.18263 5.79814 -2.58768 0.238249 -0.951775 0.193293 75 75 63
4.17336 5.79223 -2.57238 -0.182643 -0.957216 0.224451 98 98 83
4.11149 5.80196 -2.56962 0.422938 -0.852957 -0.305921 72 73 61
4.10134 5.78986 -2.55173 0.0607196 -0.995684 0.0701958 74 79 58
4.08419 5.78772 -2.56127 -0.0626716 -0.978251 0.197733 161 178 86
4.07049 5.78742 -2.55111 -0.0806615 -0.995512 0.049484 179 198 91
4.04813 5.79903 -2.54707 0.208665 -0.770662 0.602112 168 185 86
4.01598 5.79235 -2.54576 0.0383664 -0.991941 -0.120753 214 234 99
3.99558 5.79012 -2.53413 0.0584479 -0.988468 -0.139693 113 124 56
3.97871 5.78356 -2.52153 0.0985696 -0.9543 -0.282125 72 76 58
3.95583 5.78701 -2.53459 0.0359299 -0.992134 -0.119914 81 88 52
3.95281 5.7862 -2.53283 0.0444014 -0.986757 -0.156009 77 83 54
3.93981 5.78093 -2.5236 0.0617247 -0.96471 -0.255978 69 72 62
3.92991 5.78603 -2.52247 -0.0293708 -0.992626 -0.117601 67 69 62
3.9023 5.79597 -2.51728 -0.2555 -0.962676 -0.0893007 64 66 61
3.90251 5.73007 -2.4761 -0.481439 -0.872052 0.0879881 70 73 70
3.62916 5.93322 -2.56393 -0.257286 -0.938031 0.232167 36 43 45
3.59658 5.95061 -2.56237 0.170377 -0.887868 -0.427391 27 40 49
3.59121 5.95313 -2.57139 -0.187905 -0.982173 -0.00531958 32 39 47
3.56694 5.94388 -2.55243 -0.260694 -0.955396 0.138767 20 65 92
3.56329 5.96161 -2.58231 -0.213218 -0.9681 -0.131604 31 39 38
3.54808 5.94158 -2.5608 0.0913585 -0.994836 -0.0442115 17 49 66
3.53144 5.94227 -2.54986 -0.0355279 -0.985693 0.164765 26 101 145
3.51557 5.95216 -2.54376 -0.154049 -0.677291 0.719407 18 140 215
3.50011 5.95884 -2.54536 -0.252081 -0.656618 0.71085 15 142 223
3.49666 5.94795 -2.55356 -0.191893 -0.607501 0.770791 26 133 199
3.47293 5.9652 -2.55299 -0.284671 -0.629215 0.723222 13 144 228
3.43216 5.97477 -2.56381 -0.338367 -0.749101 0.569522 13 144 229
3.42461 6.01243 -2.57075 -0.337648 -0.743636 0.577061 10 149 241
3.42616 6.01034 -2.56957 -0.302784 -0.664055 0.683632 10 149 241
3.42616 6.01034 -2.56957 -0.302784 -0.664055 0.683632 10 149 241
3.39191 6.01589 -2.57484 0.170776 -0.0817395 0.981913 16 146 232
3.37452 6.00894 -2.5683 0.379123 0.0523367 0.923865 34 100 145
3.36083 5.99586 -2.54806 0.678244 0.0458838 0.733402 79 81 77
1.09825 8.42101 -3.93306 0.758147 -0.304513 0.576616 93 92 87
1.06146 8.40806 -3.91877 0.611023 0.175996 0.771801 82 81 80
6.82619 8.48412 -5.25455 -0.354133 -0.567964 0.742972 191 170 133
6.80788 8.49418 -5.24874 -0.437477 -0.714984 0.545355 193 171 136
6.78698 8.50515 -5.24765 -0.513976 -0.732754 0.445982 188 166 133
6.76106 8.5143 -5.26389 -0.562593 -0.803123 0.196169 170 148 116
6.70284 8.51526 -5.25509 -0.0621257 -0.995768 0.0677311 190 168 133
6.59756 8.51514 -5.20546 -0.368119 -0.920015 0.134389 187 166 132
6.59256 8.52011 -5.23539 -0.189938 -0.978129 -0.0847751 184 163 130
6.5693 8.5321 -5.2253 -0.373037 -0.925065 -0.0714028 163 143 112
6.33914 6.8605 -3.87571 0.187061 -0.37573 0.907654 240 73 60
6.32148 6.86446 -3.86648 0.364544 -0.751408 0.549994 238 73 60
6.30724 6.85326 -3.87259 0.322219 -0.858413 0.399126 202 76 67
6.23992 6.51498 -3.57599 0.536647 -0.35855 0.763841 173 64 53
6.2285 6.50368 -3.56918 0.143106 -0.384641 0.911906 235 75 61
6.12432 5.93801 -3.11105 0.626043 -0.779526 0.0202495 159 62 54
6.06782 5.84599 -3.01509 0.793537 -0.59954 0.104169 77 73 64
6.06839 5.84536 -3.01462 0.780363 -0.624579 0.0305775 77 73 64
6.06782 5.84599 -3.01509 0.793537 -0.59954 0.104169 77 73 64
6.03428 5.82022 -2.99019 -0.436471 -0.899718 0.000537343 125 113 90
6.01186 5.82759 -3.00321 0.0209232 -0.999702 -0.0125979 156 143 115
5.99716 5.82219 -2.9916 0.0604016 -0.993208 0.0994439 126 114 88
5.96899 5.82413 -2.99055 0.0896675 -0.845718 0.526043 116 115 73
5.98333 5.83014 -2.98427 -0.433858 -0.825014 0.362104 118 106 82
5.95288 5.82903 -2.98291 0.203298 -0.849622 0.486635 117 119 68
5.9122 5.82335 -2.97282 -0.0609627 -0.975715 0.21039 165 176 88
5.89601 5.82221 -2.96183 0.0376397 -0.999245 0.00964051 95 98 57
5.85735 5.82434 -2.96249 -0.0218223 -0.999447 0.0250716 84 85 62
5.85932 5.825 -2.96345 -0.0415873 -0.997376 0.0592527 86 86 62
5.82409 5.8262 -2.96426 0.0129138 -0.995442 0.0944919 79 78 62
5.8417 5.8263 -2.9535 -0.0241698 -0.993919 0.107432 77 76 64
5.82082 5.82674 -2.96391 0.0226772 -0.994278 0.104385 78 77 62
5.80453 5.8258 -2.95318 -0.055459 -0.994029 0.0939687 73 72 60
5.78557 5.8305 -2.94461 0.0661123 -0.976125 0.206906 65 65 52
5.77208 5.82712 -2.95287 0.00974092 -0.994857 0.100818 70 70 56
5.75188 5.83485 -2.94711 -0.0969638 -0.80342 0.587464 57 58 45
5.7308 5.85018 -2.94418 -0.137585 -0.81163 0.567738 41 42 32
5.71106 5.85495 -2.95611 0.00829771 -0.954212 0.299017 49 50 39
5.70205 5.85504 -2.94305 -0.0235405 -0.926239 0.3762 25 25 16
5.70277 5.85435 -2.94224 -0.0842143 -0.875425 0.47596 23 23 15
5.6858 5.85235 -2.95189 0.0704392 -0.99054 0.117765 31 32 23
5.66865 5.85707 -2.94376 -0.0540644 -0.969062 0.240823 15 15 7
5.65073 5.85646 -2.93298 0.123993 -0.975748 -0.180391 15 15 6
5.63336 5.85858 -2.94518 0.0425697 -0.984966 -0.167419 14 14 5
5.61365 5.8538 -2.93716 -0.00806358 -0.987676 0.156304 18 18 8
5.62821 5.85878 -2.92918 -0.0519277 -0.959203 0.277909 29 28 17
5.59354 5.86082 -2.93001 -0.144003 -0.942975 0.300102 49 47 35
5.57859 5.86033 -2.91994 -0.0262152 -0.976873 -0.212208 84 82 66
5.58021 5.8612 -2.91948 -0.00303635 -0.971609 -0.236575 85 82 66
5.57199 5.8473 -2.92285 -0.0161998 -0.994716 -0.101375 72 70 56
5.55607 5.82786 -2.89376 -0.429648 -0.826002 0.364862 91 86 72
5.56351 5.83809 -2.90882 0.0383065 -0.959484 -0.279148 76 73 58
5.56084 5.86281 -2.93158 -0.149117 -0.931474 0.331845 68 65 52
5.56182 5.86026 -2.92984 -0.0599158 -0.997358 -0.0410824 72 70 55
5.56351 5.83809 -2.90882 0.0383065 -0.959484 -0.279148 76 73 58
5.53772 5.82656 -2.88303 0.0428637 -0.998634 -0.0298846 97 96 60
5.50665 5.8181 -2.87948 -0.341181 -0.772209 0.535993 108 109 56
5.48339 5.82727 -2.87305 -0.00156483 -0.998725 0.0504564 199 213 90
5.44693 5.83166 -2.87467 -0.0452854 -0.994733 0.0919541 223 241 98
5.4332 5.83041 -2.86339 -0.102115 -0.980058 0.170469 230 254 83
5.41728 5.83131 -2.87281 -0.0353451 -0.858517 0.511565 226 246 96
5.39819 5.83209 -2.86186 0.0918884 -0.916149 0.390163 230 253 84
5.39987 5.83242 -2.863 0.0381348 -0.920574 0.388701 230 253 85
5.38382 5.83422 -2.85339 0.0414393 -0.910479 0.411473 229 254 82
5.34545 5.82962 -2.84483 0.0353908 -0.984524 0.171636 229 253 85
5.35043 5.82408 -2.84317 -0.0783443 -0.986508 -0.143753 229 253 85
5.3308 5.82439 -2.8507 -0.138317 -0.926713 -0.349387 197 212 87
5.30979 5.82403 -2.83942 -0.0146233 -0.991233 -0.131312 184 197 82
5.26593 5.80275 -2.80425 0.570973 -0.808333 0.143482 85 83 52
5.26469 5.8271 -2.83239 -0.143877 -0.953617 -0.264414 83 80 54
5.21521 5.82418 -2.81755 0.0432642 -0.939454 -0.339934 67 65 53
5.19599 5.83249 -2.80907 0.0106275 -0.999746 0.0198568 66 64 53
5.17612 5.83636 -2.82331 0.349307 -0.899959 0.26088 44 44 34
5.16175 5.83345 -2.81311 -0.291064 -0.762583 0.577711 27 25 16
5.14046 5.81993 -2.7916 0.150804 -0.588183 0.794543 64 62 49
5.11841 5.81029 -2.77673 -0.260605 -0.961692 0.0850554 107 104 87
5.06619 5.82008 -2.78133 0.379957 -0.9121 0.153968 74 74 53
5.05473 5.81157 -2.77056 0.321662 -0.944705 0.0637627 101 110 48
5.03651 5.80804 -2.75872 0.151454 -0.988116 -0.0262323 214 236 93
4.3261 5.80832 -2.60317 0.244345 -0.238145 0.939991 231 254 83
4.32788 5.83379 -2.62071 0.224594 -0.0578316 0.972735 232 255 85
4.32788 5.83379 -2.62071 0.224594 -0.0578316 0.972735 232 255 85
4.32788 5.83379 -2.62071 0.224594 -0.0578316 0.972735 232 255 85
4.33243 5.79431 -2.59616 0.088644 -0.217386 0.972052 232 255 84
4.32868 5.8379 -2.62397 0.0435876 -0.0400419 0.998247 232 255 86
4.30385 5.78138 -2.58489 0.667645 -0.735635 0.114414 206 220 88
4.29386 5.77916 -2.56969 0.584489 -0.804127 0.108404 158 168 68
4.2706 5.78027 -2.56265 0.241965 -0.965776 -0.0934388 75 75 49
4.25423 5.79099 -2.57721 -0.208419 -0.951273 -0.227249 70 69 56
4.22601 5.80245 -2.57274 -0.192949 -0.954665 -0.226685 61 61 52
4.20572 5.80401 -2.5824 0.191062 -0.980066 0.0544548 28 28 19
4.18826 5.80011 -2.56464 -0.202956 -0.967628 0.15002 41 41 31
4.16584 5.78838 -2.55748 -0.216009 -0.972232 0.0900312 109 108 93
4.17356 5.79625 -2.55449 0.433288 -0.875772 0.212802 79 79 66
4.16172 5.78776 -2.56035 0.572702 -0.819763 0.000700414 112 111 96
4.14812 5.78933 -2.5496 -0.0547876 -0.73443 0.676469 106 106 90
4.0985 5.81161 -2.54572 -0.0628058 -0.866023 0.496045 72 72 63
4.08627 5.78961 -2.54146 -0.0334747 -0.937447 0.346514 79 86 55
4.06505 5.80124 -2.53756 0.0801836 -0.971623 0.222531 81 88 55
4.05289 5.796 -2.52464 0.127942 -0.990926 0.0411915 75 80 56
4.03617 5.79226 -2.53406 0.0602504 -0.989806 -0.129054 131 145 67
4.01509 5.79039 -2.52256 0.067301 -0.99347 -0.0921291 78 84 51
3.99515 5.78848 -2.51164 -0.0175037 -0.996042 -0.0871422 67 69 61
3.97036 5.78824 -2.50257 -0.242648 -0.96304 -0.116946 64 67 62
3.94769 5.78995 -2.51311 -0.221422 -0.955721 0.19383 62 64 60
3.718 5.95833 -2.57787 0.330027 -0.839554 -0.431546 59 64 66
3.68446 5.9315 -2.55775 -0.377102 -0.905547 0.194367 40 47 46
3.62258 5.94336 -2.54749 0.0990607 -0.989336 0.106778 22 42 53
3.60121 5.94723 -2.53932 -0.25733 -0.863374 0.434013 22 91 133
3.54842 5.94891 -2.54016 -0.226965 -0.656422 0.719442 24 135 202
3.53547 5.95345 -2.53298 -0.13574 -0.765106 0.629435 11 141 222
3.47166 5.99257 -2.55361 -0.302165 -0.594799 0.744923 9 148 234
3.41712 6.00926 -2.55669 0.36141 -0.0117107 0.932334 20 139 216
3.38086 6.02644 -2.57057 0.473844 0.0923286 0.875755 33 123 184
3.37919 6.00245 -2.53788 0.850974 -0.0906914 0.517318 72 79 79
1.45986 8.42854 -4.0031 0.946897 -0.272825 -0.170154 136 143 81
1.45808 8.39999 -3.96741 0.683226 -0.603543 -0.41102 94 93 88
1.4281 8.34214 -3.93093 0.310489 0.11794 0.943232 86 85 80
1.39218 8.37221 -3.93363 -0.432372 -0.577984 0.692091 87 87 82
1.34536 8.36545 -3.91563 0.956117 0.0486399 0.28892 82 82 77
1.11086 8.44678 -3.93159 -0.275344 -0.634488 0.722226 91 90 86
1.09049 8.43963 -3.91101 0.295404 -0.376065 0.878244 90 89 85
6.83239 8.48602 -5.23017 -0.392892 -0.576645 0.716321 192 171 135
6.8074 8.51164 -5.22755 -0.342908 -0.581402 0.737825 193 171 136
6.75863 8.531 -5.24141 -0.258684 -0.874224 0.410871 169 148 116
6.73863 8.54506 -5.23632 -0.44559 -0.701247 0.556509 162 142 111
6.70434 8.52608 -5.23411 -0.108203 -0.813959 0.570757 187 165 130
6.67165 8.52041 -5.21578 -0.0295217 -0.540717 0.840686 193 170 134
6.69083 8.51704 -5.22269 -0.00779164 -0.597099 0.80213 190 169 133
6.59745 8.51358 -5.17521 -0.32143 -0.940379 -0.111225 185 163 129
6.57234 8.52261 -5.18994 -0.304981 -0.950663 -0.0568003 160 139 110
6.33286 6.88275 -3.86509 0.296193 -0.31216 0.902677 239 74 61
6.32168 6.87546 -3.85082 0.39563 -0.574068 0.716884 240 72 60
6.30495 6.8671 -3.8558 0.269691 -0.821324 0.502686 218 80 70
6.24881 6.53761 -3.57555 0.737214 -0.301887 0.604467 65 26 19
6.23648 6.53662 -3.56578 0.170185 -0.571685 0.802629 159 59 50
6.22233 6.52251 -3.56815 0.203049 -0.505569 0.838553 236 73 59
6.20692 6.52601 -3.55847 0.198438 -0.484386 0.852052 241 72 56
6.13969 5.94199 -3.10243 -0.0671895 -0.996655 -0.0465134 238 75 62
6.1216 5.94151 -3.09102 -0.11477 -0.981151 0.155467 194 75 66
6.10818 5.93893 -3.0792 0.39491 -0.902867 0.169933 102 38 33
6.07569 5.85348 -3.00813 0.743961 -0.574159 0.341853 75 72 66
6.06085 5.82421 -2.98763 0.732263 -0.676 0.0825481 81 76 67
6.0544 5.83407 -2.98477 0.696588 -0.717168 -0.0208718 80 76 67
6.03345 5.81622 -2.97307 -0.380668 -0.914241 -0.138766 120 109 88
6.01567 5.80293 -2.96758 -0.419715 -0.679011 0.602315 178 162 128
5.99828 5.81206 -2.96419 0.0545766 -0.973652 0.221411 145 131 99
5.98253 5.81299 -2.95491 -0.487191 -0.812388 0.320423 130 118 92
5.96572 5.83785 -2.97736 0.0159827 -0.687507 0.726002 106 98 79
5.96819 5.83448 -2.97685 -0.37676 -0.730161 0.570015 113 103 83
5.9527 5.83767 -2.96827 0.0995302 -0.62978 0.770371 102 96 77
5.92825 5.82528 -2.96383 -0.0463975 -0.925965 0.374749 99 99 60
5.91221 5.82683 -2.95419 -0.0366169 -0.98212 0.184662 93 90 69
5.89381 5.82684 -2.94402 0.0542343 -0.961593 0.269068 86 81 68
5.87702 5.82479 -2.95317 0.00508019 -0.996444 0.0840983 84 81 65
5.89091 5.82742 -2.94382 0.0753051 -0.956029 0.28344 85 80 67
5.86071 5.82301 -2.94119 -0.0086171 -0.999653 0.024894 77 75 63
5.87414 5.82759 -2.95428 0.000219524 -0.972039 0.234819 84 81 65
5.85592 5.82886 -2.9443 -0.427891 -0.865568 0.260195 83 81 70
5.84371 5.82212 -2.93042 -0.0836995 -0.907544 0.411531 67 66 54
5.82221 5.82564 -2.94254 0.130597 -0.98809 0.0813799 71 70 58
5.80455 5.82723 -2.93462 -0.0469824 -0.856247 0.514425 59 59 47
5.7794 5.8505 -2.93634 -0.0960947 -0.870636 0.48245 49 49 38
5.71796 5.8571 -2.93387 -0.0731272 -0.891807 0.446466 18 18 10
5.72079 5.85237 -2.93218 -0.0816709 -0.959219 0.270607 19 19 11
5.70154 5.8597 -2.92494 0.00733316 -0.985301 0.170673 15 14 6
5.68462 5.85658 -2.93347 -0.293552 -0.669887 0.681967 15 15 6
5.68781 5.85355 -2.93228 -0.00393614 -0.979349 0.20214 13 12 5
5.66947 5.85507 -2.92169 -0.284968 -0.892956 0.348459 24 23 12
5.64747 5.81776 -2.87754 -0.435063 -0.811517 0.390076 86 81 66
5.65058 5.85297 -2.91283 -0.297451 -0.896416 0.328573 56 54 41
5.62799 5.86425 -2.91168 -0.0685213 -0.959295 0.273969 83 79 63
5.62571 5.86511 -2.9118 -0.0852182 -0.945193 0.315196 83 79 64
5.61603 5.81461 -2.87617 -0.0750766 -0.946283 0.314502 87 83 63
5.61244 5.81417 -2.87564 -0.0884829 -0.91125 0.402236 88 83 63
5.59275 5.82337 -2.87002 -0.0451529 -0.974408 0.220205 100 99 58
5.57692 5.81961 -2.87914 -0.0687349 -0.948269 0.309939 90 87 62
5.55617 5.8261 -2.87216 0.00846383 -0.997677 0.067599 115 119 56
5.53758 5.82739 -2.86262 0.0245302 -0.999291 0.028574 202 217 91
5.51997 5.82188 -2.86997 -0.053579 -0.995934 0.0724263 164 175 73
5.49974 5.82993 -2.86377 -0.0158923 -0.999542 0.0257713 226 245 96
5.48308 5.82995 -2.85361 -0.0045478 -0.993046 0.117641 230 254 83
5.46594 5.8293 -2.8635 -0.0250654 -0.99348 0.111221 230 252 89
5.4461 5.83627 -2.8561 -0.115458 -0.935016 0.335284 230 254 82
5.415 5.83636 -2.85517 0.0191258 -0.917988 0.396148 229 254 81
5.42519 5.84605 -2.84962 -0.372833 -0.593825 0.712999 232 254 90
5.39686 5.84103 -2.84661 -0.238712 -0.783474 0.573746 230 254 85
5.37655 5.83059 -2.84285 -0.0111624 -0.991488 0.129716 229 254 82
5.35879 5.83663 -2.83531 0.0127041 -0.935322 0.353568 229 254 83
5.32861 5.8262 -2.83018 -0.00159433 -0.99834 -0.0575811 229 254 82
5.34716 5.82634 -2.81931 -0.331909 -0.795171 0.507483 229 254 85
5.33513 5.83962 -2.82371 -0.248723 -0.804693 0.539079 230 254 84
5.34301 5.82948 -2.82159 -0.304056 -0.941622 0.144563 229 254 84
5.32809 5.82556 -2.83149 -0.0909027 -0.987228 -0.130831 229 253 84
5.30923 5.822 -2.81589 -0.140035 -0.981292 -0.132122 229 253 85
5.28305 5.82292 -2.81543 0.101509 -0.622572 0.775951 187 199 85
5.28841 5.82658 -2.81088 0.31756 -0.946498 0.0574182 226 246 93
5.27403 5.82049 -2.80077 0.579498 -0.778443 0.241266 198 212 88
5.2586 5.81602 -2.79015 0.413133 -0.891505 0.185848 135 140 59
5.2405 5.81397 -2.799 0.0649654 -0.997817 0.011848 79 75 61
5.23907 5.81286 -2.78649 0.263731 -0.964578 0.00585945 82 78 57
5.21973 5.817 -2.79104 -0.35307 -0.93182 0.083988 74 70 60
5.18913 5.82806 -2.79048 -0.330611 -0.943762 -0.00313844 64 63 52
5.1413 5.8254 -2.77369 -0.18807 -0.902097 0.388396 40 39 28
5.11997 5.81251 -2.75836 0.161453 -0.960047 0.228566 90 88 73
5.10005 5.81348 -2.76848 -0.280883 -0.95272 -0.115882 114 111 93
5.08785 5.81926 -2.77133 -0.164816 -0.974125 -0.154646 88 84 68
5.03069 5.8032 -2.73597 0.233411 -0.971128 0.0492953 223 247 90
5.00067 5.79819 -2.73 0.188623 -0.931612 -0.310678 229 254 83
4.2887 5.78562 -2.55878 0.734381 -0.648357 0.200794 177 189 75
4.2823 5.77779 -2.54068 0.636725 -0.744317 0.201431 119 125 54
4.25585 5.78576 -2.5523 -0.017927 -0.993503 -0.112386 69 68 53
4.22597 5.79987 -2.54933 -0.255009 -0.943364 -0.212212 62 62 53
4.20149 5.80382 -2.54573 -0.00259253 -0.994743 -0.102368 32 33 25
4.18113 5.7962 -2.5315 0.118147 -0.687197 0.7168 43 44 34
4.17881 5.79885 -2.55143 -0.151446 -0.930432 0.333707 57 57 46
4.15635 5.78788 -2.52556 0.569329 -0.805021 0.166747 107 106 92
4.1658 5.79057 -2.54116 -0.0879271 -0.882388 0.462234 98 98 84
4.16704 5.79154 -2.5392 0.423072 -0.873142 0.242144 91 91 78
4.13061 5.78991 -2.52268 -0.163584 -0.95042 0.264468 83 82 70
4.1199 5.78558 -2.50824 -0.174975 -0.780764 0.599827 77 77 67
4.08245 5.80186 -2.52748 -0.506793 -0.757812 0.410952 77 78 72
4.07815 5.80373 -2.51613 -0.295091 -0.893374 0.338828 73 75 68
4.07817 5.81294 -2.53132 -0.323761 -0.940958 0.0988763 74 76 69
4.05473 5.79405 -2.50277 -0.264991 -0.959626 -0.0943274 72 74 69
4.03483 5.79512 -2.51496 0.0952202 -0.995225 0.0214575 70 73 61
4.0126 5.79202 -2.50209 -0.154475 -0.987639 0.0265692 64 64 60
3.72767 6.00105 -2.59381 0.165172 -0.883875 -0.437587 58 65 68
3.73848 5.97153 -2.5689 0.356591 -0.817995 -0.451361 46 51 53
3.73952 5.97023 -2.56666 0.115848 -0.921234 -0.371359 44 49 49
3.68272 5.94097 -2.53317 0.0764056 -0.978763 -0.190225 24 41 54
3.662 5.93822 -2.54034 -0.00743109 -0.987178 0.159448 25 38 47
3.64966 5.93876 -2.52951 -0.172428 -0.72562 0.666141 19 67 95
3.64149 5.94462 -2.53675 -0.0616364 -0.546116 0.835439 19 58 81
3.61643 5.95298 -2.53074 -0.225898 -0.792244 0.56685 28 119 172
3.58648 5.95224 -2.52977 -0.155051 -0.710435 0.68647 25 133 198
3.57876 5.94439 -2.51361 -0.48955 -0.857749 0.156867 9 149 244
3.54922 5.96393 -2.52512 -0.333967 -0.663481 0.669522 10 145 233
3.56579 5.95508 -2.53023 -0.238101 -0.65606 0.716165 15 142 222
3.54822 5.96488 -2.52536 -0.331718 -0.675546 0.658483 10 146 236
3.51353 5.96975 -2.53087 -0.313064 -0.611033 0.72707 8 147 234
3.49016 5.99504 -2.54277 -0.366144 -0.786222 0.497789 8 147 233
3.4825 6.00649 -2.54843 -0.335884 -0.654103 0.677739 9 148 237
3.38901 6.085 -2.57892 0.372496 -0.0133864 0.927937 14 151 237
3.3897 6.04071 -2.56151 0.538455 0.0663541 0.840038 29 135 201
3.37492 6.04153 -2.55792 0.68627 -0.0610101 0.724783 45 86 111
1.49165 8.42353 -3.96142 0.737717 -0.673205 -0.0506863 111 116 77
1.43973 8.38959 -3.93837 -0.209767 -0.973974 0.0858624 90 89 83
1.41429 8.38622 -3.92518 -0.070724 -0.745116 0.663174 85 84 78
1.34916 8.39764 -3.91082 0.852661 0.00876266 0.522391 90 89 84
1.34935 8.40124 -3.91653 0.805604 0.0604306 0.589364 90 89 84
1.12857 8.46914 -3.91499 -0.211835 -0.259793 0.942143 83 83 78
1.0356 8.43856 -3.88266 0.886967 -0.349962 -0.301357 87 87 85
1.02653 8.34605 -3.79191 0.693648 -0.555421 -0.458649 80 80 79
6.786 8.51554 -5.21296 -0.528001 -0.788624 0.315099 187 165 131
6.75628 8.54139 -5.21378 0.134512 -0.985514 0.103289 170 149 116
6.73764 8.53649 -5.20216 0.244337 -0.957056 -0.156022 166 144 112
6.70583 8.53692 -5.21315 -0.13088 -0.832381 0.538528 180 159 124
6.67402 8.5283 -5.1914 -0.450011 -0.781179 0.432723 191 168 132
6.32699 6.8785 -3.83091 0.09181 -0.508298 0.856274 240 73 59
6.30397 6.8822 -3.8405 0.306545 -0.651359 0.69409 229 79 69
6.30359 6.88046 -3.84116 0.248842 -0.700442 0.668924 227 79 70
6.28817 6.88175 -3.82997 0.742799 -0.413572 0.526505 143 58 50
6.28867 6.88336 -3.82866 0.706659 -0.44093 0.553366 151 61 53
6.24718 6.55636 -3.56465 0.806479 -0.291585 0.514364 55 25 19
6.2075 6.53742 -3.54328 0.360905 -0.427044 0.829084 240 72 55
6.143 5.93544 -3.07857 -0.310621 -0.93683 -0.160823 238 71 57
6.12087 5.93972 -3.0636 0.0767042 -0.982944 -0.167145 222 84 74
6.10735 5.93071 -3.05175 0.480721 -0.876865 0.00402364 112 43 36
6.07161 5.83747 -2.98699 0.721252 -0.541382 0.432088 76 73 65
6.06072 5.83452 -2.9657 0.780468 -0.619548 0.0838437 75 73 66
6.04832 5.82057 -2.96421 0.282345 -0.958684 -0.0347345 83 79 68
6.04958 5.8227 -2.96702 0.112295 -0.969021 -0.219971 82 78 67
6.02121 5.8153 -2.94681 -0.430507 -0.899419 -0.0755583 139 127 100
5.9991 5.82176 -2.94874 -0.377055 -0.729216 0.571028 174 160 126
5.98141 5.82517 -2.94123 -0.269779 -0.848837 0.454637 125 114 89
5.98024 5.82458 -2.94562 -0.188607 -0.824221 0.533935 122 112 87
5.97232 5.81465 -2.93967 0.186161 -0.477061 0.858928 115 107 85
5.94584 5.82335 -2.9323 -0.572851 -0.531476 0.624 124 115 95
5.9477 5.83084 -2.93457 -0.273563 -0.744586 0.608896 109 101 82
5.92861 5.82798 -2.94476 -0.275177 -0.890267 0.362909 98 92 76
5.91149 5.83188 -2.93643 -0.238074 -0.868456 0.434863 89 84 72
5.83943 5.85525 -2.93149 -0.198619 -0.684335 0.701595 62 61 52
5.82481 5.84922 -2.9254 -0.163521 -0.790003 0.590895 50 49 39
5.81012 5.8453 -2.93325 -0.156112 -0.789957 0.592957 56 56 45
5.79568 5.85183 -2.92742 -0.124661 -0.848306 0.514622 43 43 33
5.77683 5.86276 -2.92254 0.242801 -0.91989 -0.307976 26 25 15
5.75488 5.85864 -2.91617 0.0575307 -0.998342 0.00205131 17 16 7
5.73491 5.8595 -2.92538 0.120244 -0.97886 -0.165451 18 17 8
5.73703 5.85989 -2.92677 0.141394 -0.9787 -0.148844 18 17 9
5.72024 5.86111 -2.91657 -0.0523558 -0.981139 0.186078 20 18 9
5.72127 5.85608 -2.91319 -0.0479802 -0.988446 0.143777 22 20 10
5.70155 5.86294 -2.90615 -0.0628389 -0.988286 0.139078 54 51 37
5.68794 5.85692 -2.9133 -0.0363574 -0.950136 0.309708 37 35 22
5.67122 5.85843 -2.90219 0.0399325 -0.968987 -0.243862 83 79 63
5.67071 5.84153 -2.88662 -0.40769 -0.86486 0.292928 85 81 64
5.64652 5.82328 -2.86004 -0.0377033 -0.978328 0.2036 100 98 61
5.63048 5.82151 -2.86914 -0.0325927 -0.979073 0.200882 94 89 65
5.60901 5.82731 -2.86182 0.0155468 -0.999878 -0.00173119 117 119 59
5.59057 5.82796 -2.85169 -0.000440449 -0.999998 0.00187978 204 220 92
5.57212 5.82767 -2.86225 -0.0504923 -0.983175 0.175552 154 163 69
5.55467 5.82937 -2.853 0.00233987 -0.998827 0.0483707 226 246 94
5.53661 5.82906 -2.8424 0.0612508 -0.997214 0.0425632 230 254 83
5.53439 5.83366 -2.84497 -0.00877628 -0.964229 0.264925 230 254 83
5.51823 5.82923 -2.85305 0.00261554 -0.999993 -0.00272615 230 253 88
5.49529 5.83736 -2.84668 -0.436487 -0.646477 0.625737 232 254 88
5.46293 5.83616 -2.84586 -0.257123 -0.813973 0.520899 230 254 85
5.41669 5.83718 -2.83486 -0.453607 -0.8826 0.123521 231 254 90
5.3129 5.8169 -2.79407 -0.443988 -0.697124 0.562932 231 254 86
5.28877 5.82687 -2.79197 0.330051 -0.942857 0.0456895 229 254 81
5.29168 5.8251 -2.79815 0.397498 -0.365284 0.841762 230 254 84
5.27281 5.82295 -2.78195 0.229136 -0.972454 0.0427887 229 252 87
5.26049 5.8165 -2.77122 0.238754 -0.960201 0.144952 218 234 94
5.24529 5.81079 -2.7797 0.38138 -0.914526 0.134873 90 89 49
5.25337 5.81376 -2.76927 0.248119 -0.96419 -0.0936679 176 186 78
5.23552 5.80969 -2.77186 0.056757 -0.998306 0.0127875 81 78 51
5.22445 5.81102 -2.7586 0.151293 -0.964561 -0.216176 77 74 53
5.21414 5.8184 -2.77614 -0.110757 -0.980759 -0.160764 73 69 58
5.20234 5.82062 -2.76566 -0.101385 -0.934794 -0.340412 68 66 54
5.16527 5.83454 -2.77292 -0.32155 -0.944621 -0.0655557 42 42 32
5.14892 5.83066 -2.75855 0.516424 -0.85553 -0.037076 19 19 9
5.12959 5.82315 -2.75269 0.178479 -0.96031 0.21436 50 49 37
5.12314 5.81478 -2.74068 0.0262942 -0.932389 0.360497 71 70 57
5.1078 5.81148 -2.74878 0.149028 -0.986054 -0.0740857 108 106 88
5.04436 5.81119 -2.72725 0.290075 -0.955629 0.0512865 101 111 48
5.03054 5.80442 -2.71681 0.651334 -0.736165 0.183918 207 229 92
5.03046 5.80136 -2.708 0.606953 -0.781297 0.145544 210 232 94
5.01592 5.79119 -2.70815 0.547747 -0.832666 0.0814873 229 254 81
4.30708 5.78875 -2.54838 0.1975 -0.978962 0.0512569 231 253 79
4.29386 5.78965 -2.53327 0.556044 -0.820557 0.132291 228 248 87
4.29384 5.79366 -2.54296 0.604118 -0.786288 0.129588 229 250 86
4.28055 5.78254 -2.52266 0.499776 -0.854889 0.139246 153 163 69
4.20336 5.80027 -2.52117 -0.125446 -0.991304 -0.039746 40 40 33
4.16729 5.79739 -2.52066 -0.148833 -0.93604 0.318869 69 70 58
4.15507 5.79609 -2.5084 0.481413 -0.715072 0.506866 91 92 79
4.08094 5.78224 -2.49263 -0.210898 -0.947716 0.239492 65 67 60
4.02068 5.80464 -2.49857 -0.283463 -0.948946 0.138382 64 65 61
3.78064 6.01222 -2.58634 0.383795 -0.885171 -0.263009 54 62 65
3.77428 5.95113 -2.5488 -0.205977 -0.97237 -0.109865 47 52 50
3.76558 5.96481 -2.56335 -0.24162 -0.962264 -0.125172 53 57 56
3.73453 5.9417 -2.52055 0.108474 -0.991475 -0.0721831 23 40 47
3.70866 5.93552 -2.51827 0.0685868 -0.993794 0.0875709 20 52 70
3.67393 5.94641 -2.51279 -0.163364 -0.729172 0.664545 30 119 174
3.65474 5.94458 -2.52374 -0.172778 -0.734831 0.655874 25 93 134
3.61084 5.96674 -2.5172 -0.303011 -0.581138 0.75529 11 145 227
3.60475 5.95492 -2.52087 -0.281765 -0.741793 0.608566 16 142 218
3.60386 5.9604 -2.51155 -0.218533 -0.770203 0.599192 8 140 220
3.59654 5.96889 -2.51533 0.803115 -0.578047 0.144457 8 141 220
3.5881 5.96352 -2.51335 -0.493954 -0.853544 0.165749 9 151 239
3.56963 5.9655 -2.51105 -0.442755 -0.652981 0.614479 10 148 240
3.5647 5.98359 -2.51528 -0.310711 -0.641148 0.701703 10 148 239
3.52971 5.97763 -2.5221 -0.443082 -0.663067 0.60334 12 147 236
3.42093 6.10828 -2.57924 -0.279978 -0.614615 0.737469 9 149 240
3.40762 6.10293 -2.58005 0.45278 0.0651655 0.889238 10 151 242
3.40615 6.10927 -2.57998 0.434518 0.0518401 0.89917 9 147 236
3.37722 6.06781 -2.55795 0.420159 -0.0612335 0.905382 49 96 122
3.37665 6.10932 -2.57248 0.622053 -0.0108437 0.7829 28 124 185
3.36741 6.04811 -2.53565 0.795309 0.0148778 0.606021 81 81 78
1.51238 8.41607 -3.9229 0.853878 -0.498213 -0.150586 78 79 75
1.46691 8.39324 -3.89442 -0.431594 -0.877097 0.210778 83 82 79
1.38356 8.43654 -3.92892 -0.145792 -0.264483 0.953307 84 83 77
1.35792 8.43534 -3.9167 0.361011 -0.42517 0.830001 90 89 83
1.34066 8.41934 -3.89494 0.489028 0.161045 0.857272 94 93 87
1.34824 8.35325 -3.86183 0.937473 0.0681939 0.341313 84 83 79
1.33938 8.29629 -3.80875 0.316361 0.113589 0.941814 77 78 75
1.3202 8.32457 -3.82609 0.359983 0.106169 0.926898 76 78 75
1.07352 8.47971 -3.89904 0.614888 -0.512239 0.599603 88 88 84
1.06216 8.46669 -3.87321 0.0817534 -0.902257 -0.423378 94 94 92
1.05169 8.38056 -3.79263 0.693662 -0.555661 -0.458338 87 87 84
6.77355 8.53053 -5.17021 -0.0183662 -0.962196 -0.271738 189 167 133
6.75624 8.54287 -5.19231 0.240575 -0.970365 0.0226907 175 153 121
6.73985 8.5332 -5.17144 -0.115036 -0.947007 -0.299908 168 147 115
6.73985 8.5332 -5.17144 -0.115036 -0.947007 -0.299908 168 147 115
6.69879 8.53062 -5.15176 0.184784 -0.954335 -0.234734 167 145 112
6.68245 8.51573 -5.15653 -0.193211 -0.901342 0.387623 184 161 125
6.67809 8.52414 -5.14102 -0.0562736 -0.992479 0.108716 184 161 125
6.59291 8.51131 -5.11111 0.109062 -0.953806 -0.279928 191 168 133
6.58523 8.52962 -5.12551 0.384546 -0.920829 -0.0648026 188 167 132
6.52898 8.50851 -5.10201 0.219579 -0.970865 -0.0959455 152 133 103
6.32186 6.90694 -3.82394 0.274198 -0.548792 0.78971 240 73 58
6.30394 6.8935 -3.82649 0.259338 -0.632012 0.730277 233 77 67
6.3053 6.89423 -3.82562 0.275287 -0.60049 0.750752 235 76 65
6.31987 6.90714 -3.82498 0.244163 -0.551696 0.797506 240 73 58
6.2839 6.90221 -3.81508 0.294538 -0.575259 0.763102 152 60 53
6.28754 6.90086 -3.8163 0.643664 -0.411649 0.645168 177 70 62
6.2345 6.55345 -3.55309 0.271925 -0.674299 0.686569 147 52 44
6.22241 6.55014 -3.53939 0.381891 -0.614044 0.690731 230 76 62
6.20451 6.54936 -3.52917 0.418466 -0.474576 0.77438 241 72 55
6.12367 5.94086 -3.04792 0.00760531 -0.998795 -0.0484751 236 79 66
6.02889 5.8461 -2.94601 0.30232 -0.914932 0.267401 90 86 73
5.99828 5.82652 -2.93164 0.140457 -0.973612 0.179864 154 144 117
5.96525 5.82854 -2.92141 0.15118 -0.941265 0.301935 104 97 79
5.95075 5.8255 -2.91196 0.244148 -0.960773 0.131556 88 83 68
5.93106 5.82963 -2.92471 0.0843794 -0.995514 0.0428071 89 84 70
5.91452 5.82822 -2.91474 -0.179415 -0.908173 0.378197 71 68 56
5.87452 5.85306 -2.92023 -0.158769 -0.701196 0.695066 59 57 49
5.87452 5.85306 -2.92023 -0.158769 -0.701196 0.695066 59 57 49
5.85716 5.85225 -2.92937 -0.169273 -0.656947 0.734689 63 61 51
5.81087 5.85419 -2.91879 -0.115924 -0.798184 0.591155 37 36 27
5.81885 5.87015 -2.91663 0.0849974 -0.946777 -0.310465 28 26 17
5.79485 5.86229 -2.9133 -0.0108511 -0.898037 0.439786 21 20 10
5.77253 5.85667 -2.90517 0.0291543 -0.998555 -0.0451344 20 18 9
5.737 5.86159 -2.90684 -0.126496 -0.978868 0.160673 31 29 17
5.73978 5.8578 -2.90516 -0.055549 -0.988712 0.139154 31 29 17
5.75463 5.85954 -2.89616 -0.0115837 -0.993473 0.11348 48 46 32
5.72235 5.86115 -2.89628 -0.0390765 -0.987584 0.152155 71 68 52
5.72096 5.82619 -2.86041 -0.413123 -0.875585 0.25036 95 88 69
5.71925 5.86241 -2.89557 -0.0585966 -0.992567 0.106667 76 72 56
5.71898 5.86235 -2.89589 -0.0386533 -0.994817 0.0940513 75 71 55
5.69643 5.83671 -2.8754 -0.403571 -0.841091 0.360135 92 85 68
5.69279 5.82664 -2.85193 -0.00564733 -0.997784 0.0662934 102 98 61
5.66163 5.82641 -2.85153 -0.0260707 -0.98238 0.18507 115 117 58
5.67115 5.83536 -2.86557 0.070395 -0.964719 -0.253697 95 90 65
5.62968 5.82676 -2.85149 -0.0456885 -0.979166 0.197853 148 157 66
5.62744 5.82704 -2.85107 -0.0305299 -0.977081 0.210666 155 164 69
5.58866 5.83208 -2.83317 -0.0576477 -0.985959 0.156722 230 254 84
5.58763 5.83383 -2.8349 -0.372804 -0.702315 0.606441 232 254 89
5.57214 5.82862 -2.84179 0.0151399 -0.999863 0.0067209 231 253 87
5.57171 5.83114 -2.84354 -0.0238571 -0.990538 0.135148 231 253 88
5.5543 5.82947 -2.83162 -0.0187678 -0.999166 0.0362748 230 254 83
5.54675 5.84204 -2.83925 -0.112721 -0.877762 0.465648 230 254 83
5.53321 5.84309 -2.83151 -0.428521 -0.850724 0.304365 231 254 88
5.53802 5.83202 -2.82413 -0.42067 -0.810468 0.407648 231 254 88
5.26103 5.81752 -2.75214 0.274015 -0.956329 0.101738 229 253 82
5.26395 5.8129 -2.75034 0.0674506 -0.986367 -0.150103 229 252 82
5.24622 5.8087 -2.75285 0.510027 -0.807414 0.296571 157 166 69
5.23865 5.80536 -2.73923 0.772467 -0.555518 0.307723 128 135 55
5.21396 5.81517 -2.75212 -0.110353 -0.983572 -0.142854 73 71 54
5.20024 5.81919 -2.74175 -0.180684 -0.965344 -0.18832 70 68 54
5.1922 5.82044 -2.73473 -0.0490063 -0.936602 -0.346951 68 67 54
5.17873 5.8242 -2.75306 -0.230041 -0.960138 -0.158793 57 57 46
5.16709 5.83008 -2.74859 -0.0977802 -0.994839 -0.0270981 46 47 35
5.14788 5.83225 -2.73794 0.483269 -0.866889 0.122288 19 19 9
5.12858 5.83196 -2.74056 -0.256558 -0.961439 0.0990575 25 24 13
5.11566 5.82467 -2.721 0.501086 -0.84808 0.172258 54 54 41
5.05887 5.82237 -2.70791 -0.243522 -0.962868 0.116541 74 72 57
5.04177 5.81524 -2.70873 0.598359 -0.786206 0.154426 83 89 43
5.03618 5.8084 -2.69283 0.324122 -0.945769 0.02157 116 128 54
5.03627 5.80833 -2.69283 0.348234 -0.936267 -0.0462264 115 127 54
5.021 5.79899 -2.69316 0.579408 -0.814386 0.0325704 226 251 91
5.01408 5.79282 -2.67678 0.545323 -0.838111 -0.0139185 229 254 85
4.29976 5.79727 -2.5174 0.557268 -0.821487 0.120874 231 254 78
4.29386 5.79265 -2.5149 0.506592 -0.85279 0.126941 231 252 84
4.27716 5.78597 -2.50342 0.369057 -0.929407 0.00048393 145 155 67
4.26575 5.77715 -2.49448 0.46535 -0.873498 0.143008 70 70 52
4.20659 5.79586 -2.49659 -0.115572 -0.993283 0.00558022 50 51 44
4.18419 5.80262 -2.5101 0.338471 -0.940868 -0.014309 26 27 19
4.16813 5.79577 -2.49962 -0.244584 -0.888444 0.388389 56 57 46
4.16607 5.80611 -2.49602 -0.408799 -0.893852 0.184151 43 43 32
4.14221 5.79471 -2.49685 -0.037674 -0.602777 0.79702 109 109 96
4.13369 5.79065 -2.48488 0.0985622 -0.321021 0.941929 100 100 89
4.11716 5.79122 -2.47948 0.524194 -0.544292 0.654955 69 70 63
3.83653 6.01453 -2.58158 0.110207 -0.893373 -0.435591 74 77 80
3.81515 6.02212 -2.59088 0.290288 -0.843262 -0.452373 71 77 79
3.82827 5.96124 -2.5365 0.465403 -0.770081 -0.43632 38 43 43
3.79836 6.02461 -2.59606 0.446397 -0.77985 -0.43882 59 66 63
3.80823 5.96599 -2.54116 -0.371253 -0.918119 0.138668 38 47 49
3.79409 5.9553 -2.53651 -0.257515 -0.960309 0.107202 33 42 42
3.7558 5.94012 -2.50941 0.0402958 -0.989423 0.139349 22 50 64
3.76467 5.94912 -2.52341 0.0752762 -0.916592 -0.392674 26 35 35
3.74454 5.94033 -2.49953 -0.0721719 -0.829685 0.553547 32 97 135
3.72644 5.9377 -2.50812 0.0332217 -0.839014 0.543095 24 73 99
3.69684 5.95126 -2.50391 -0.120494 -0.665771 0.736363 29 131 193
3.65912 5.95193 -2.5054 -0.247479 -0.882455 0.400034 18 139 213
3.62171 5.97197 -2.50747 -0.280421 -0.691795 0.66542 8 142 224
3.38211 6.13078 -2.56871 0.478796 -0.0597375 0.875892 33 123 176
3.37276 6.10335 -2.54594 0.696197 -0.0214911 0.717529 67 77 84
3.38624 5.88678 -2.38255 0.962981 -0.0619365 0.262358 79 80 74
3.35754 5.93555 -2.41158 0.88601 0.046158 0.461363 77 77 73
1.42224 8.451 -3.90462 -0.500482 -0.77032 0.395125 81 80 77
1.37321 8.46156 -3.91513 -0.0931573 -0.21624 0.971886 83 82 76
1.3323 8.43691 -3.87323 0.456874 0.151892 0.876467 98 96 90
1.32958 8.37126 -3.84076 0.404075 -0.0394349 0.913876 81 81 77
1.05266 8.4661 -3.84676 0.802226 -0.452713 -0.389209 100 100 96
1.07989 8.41163 -3.79164 0.695026 -0.554957 -0.457124 100 98 94
1.08825 8.41848 -3.81492 0.802414 -0.453658 -0.387719 98 97 94
6.78259 8.50251 -5.11847 0.197372 -0.97431 -0.10846 193 170 134
6.77848 8.52359 -5.13631 0.671643 -0.740541 0.0222442 191 169 134
6.74146 8.50639 -5.12031 -0.151952 -0.834193 0.530125 168 147 114
6.69564 8.53289 -5.13176 -0.167711 -0.981017 -0.0973576 166 145 111
6.59207 8.5112 -5.08858 0.0341302 -0.972906 -0.228668 192 170 134
6.59245 8.50585 -5.08775 0.23483 -0.936646 -0.259904 191 169 133
6.57064 8.5124 -5.10108 0.0339369 -0.990812 -0.13092 170 149 117
6.5726 8.50135 -5.07237 0.0920874 -0.995611 -0.0166657 178 157 123
6.58891 8.51222 -5.08712 0.173202 -0.983122 -0.0589322 191 169 133
6.55035 8.50563 -5.08697 0.0622199 -0.986023 -0.154557 151 132 102
6.53259 8.49744 -5.07126 0.124462 -0.988322 0.0879187 151 132 103
6.30479 6.91169 -3.81354 0.274312 -0.544274 0.792792 237 74 62
6.31939 6.924 -3.81198 0.317718 -0.355884 0.878864 240 73 59
6.30393 6.90892 -3.8132 0.204913 -0.576146 0.791244 236 75 63
6.2871 6.91349 -3.80336 0.534278 -0.447899 0.716891 184 72 66
6.23548 6.5662 -3.53949 0.704135 -0.392716 0.59158 111 37 30
6.20198 6.56686 -3.51708 0.40425 -0.676683 0.615371 239 72 54
6.12112 5.94411 -3.02888 0.0821638 -0.996436 0.0190776 239 74 61
6.10308 5.94508 -3.01994 0.773432 -0.564186 0.288959 205 81 74
6.0762 5.928 -3.01066 0.354663 -0.534243 0.767332 48 37 34
6.03396 5.82772 -2.91103 0.443888 -0.851641 -0.278697 81 78 69
6.03128 5.84736 -2.93911 0.367845 -0.891882 0.263129 82 79 69
6.01483 5.84404 -2.93703 0.320791 -0.920828 0.22174 105 98 80
6.029 5.84949 -2.92906 -0.0143138 -0.497385 0.867412 82 79 71
6.01528 5.84575 -2.91889 -0.145241 -0.583037 0.799358 92 86 73
5.98083 5.83155 -2.91262 -0.353319 -0.70246 0.617831 132 124 103
5.94509 5.83326 -2.89653 -0.181193 -0.719544 0.670392 58 55 45
5.94833 5.83168 -2.8958 -0.0768707 -0.577946 0.812447 59 56 46
5.92938 5.83386 -2.90708 -0.185649 -0.853969 0.486077 65 62 50
5.91545 5.83792 -2.89917 -0.32079 -0.680575 0.658719 52 50 42
5.87702 5.87069 -2.90692 0.0719042 -0.921154 -0.382498 33 31 23
5.84373 5.86476 -2.90501 0.116073 -0.946085 -0.302406 24 23 13
5.82675 5.86689 -2.89607 -0.38008 -0.76542 0.5193 26 25 13
5.81014 5.86574 -2.90559 -0.00455847 -0.983188 0.182537 19 18 8
5.80097 5.85901 -2.89263 -0.0226527 -0.997692 0.0640155 32 29 18
5.77166 5.86035 -2.88635 -0.034505 -0.988381 0.148028 69 66 51
5.75605 5.85938 -2.87564 -0.269449 -0.873363 0.405751 93 87 69
5.73195 5.8215 -2.8478 -0.0811708 -0.955873 0.282344 97 92 65
5.73723 5.81458 -2.84442 -0.212313 -0.87062 0.443783 100 94 68
5.71504 5.82648 -2.84037 -0.00984284 -0.962734 0.270271 120 121 62
5.71412 5.82677 -2.84075 0.0356204 -0.994762 0.0958136 120 120 62
5.69917 5.82894 -2.85201 0.0359159 -0.987939 -0.150622 101 96 63
5.6789 5.82879 -2.84247 0.0374157 -0.984571 -0.170941 147 154 67
5.67733 5.82804 -2.84234 -0.0504166 -0.978607 0.199465 149 156 68
5.66099 5.83123 -2.83389 -0.0290785 -0.978343 0.204938 222 240 95
5.66016 5.82904 -2.83252 0.0170664 -0.998999 -0.0413413 225 243 94
5.64243 5.83066 -2.84293 -0.0553207 -0.963237 0.262895 197 212 86
5.64495 5.82973 -2.84307 -0.0391742 -0.975351 0.217154 192 206 84
5.62719 5.83143 -2.83306 0.0133644 -0.988155 0.152873 231 252 88
5.62924 5.83128 -2.83346 0.00839072 -0.986672 0.162504 230 252 89
5.60377 5.83579 -2.8372 -0.11537 -0.931446 0.345105 230 253 89
5.6137 5.83291 -2.82371 -0.249821 -0.856005 0.452597 231 254 85
5.58464 5.85121 -2.82545 -0.594982 -0.719065 0.359085 232 254 92
5.56926 5.84077 -2.82922 -0.0382056 -0.961514 0.272088 230 254 83
5.55287 5.83581 -2.81497 -0.48506 -0.870281 0.0856006 232 254 91
5.26917 5.81971 -2.73459 0.0541769 -0.998528 0.00249773 229 254 82
5.25135 5.81587 -2.73774 0.543924 -0.740111 0.395453 228 250 87
5.24154 5.81411 -2.72372 0.636285 -0.717214 0.284157 219 239 92
5.2296 5.80146 -2.72474 0.784552 -0.567704 0.249378 93 96 43
5.19095 5.81576 -2.71184 -0.0134141 -0.962765 -0.270008 69 67 55
5.16663 5.83046 -2.72724 -0.306122 -0.947606 -0.0912805 55 54 42
5.12687 5.83552 -2.71954 -0.289968 -0.957036 -0.00074093 17 17 7
5.10231 5.8179 -2.70513 0.684578 -0.723136 0.0918017 90 89 73
5.08899 5.81146 -2.68685 0.147422 -0.973951 -0.172299 111 109 92
5.04649 5.8235 -2.69385 0.789024 -0.600673 0.128969 73 73 55
5.03524 5.80857 -2.6738 0.545788 -0.836737 0.044576 98 107 47
5.03617 5.80885 -2.67367 0.428032 -0.902359 0.0503702 93 101 46
5.02189 5.80242 -2.66408 0.462692 -0.880561 0.102606 198 219 89
5.00966 5.79397 -2.65332 0.425261 -0.899322 0.101848 228 253 85
4.98652 5.79254 -2.64694 0.30385 -0.886919 -0.347923 230 254 82
4.3007 5.79512 -2.4938 0.434364 -0.898259 -0.0667715 230 253 81
4.27646 5.78616 -2.48337 0.265359 -0.963201 -0.0427586 99 104 49
4.22551 5.79293 -2.48584 -0.227997 -0.973542 -0.0152933 65 65 59
4.20474 5.79841 -2.47433 -0.134374 -0.972216 0.191675 57 58 53
4.18323 5.80551 -2.48848 0.193719 -0.970728 0.141986 26 27 21
4.16903 5.8013 -2.47746 -0.296376 -0.949627 0.101833 34 35 27
4.14547 5.80458 -2.48266 -0.374528 -0.869399 0.322295 87 88 76
4.12693 5.80368 -2.47566 -0.0580425 -0.250814 0.966294 85 87 77
4.10224 5.82108 -2.48378 -0.0573445 -0.294569 0.953908 72 74 67
3.86726 5.97776 -2.53781 0.18859 -0.921749 -0.338839 40 45 43
3.85717 5.97732 -2.54241 0.201321 -0.925109 -0.321937 42 46 46
3.85239 5.98227 -2.54561 0.215472 -0.909332 -0.355932 43 47 47
3.84587 5.96638 -2.52735 0.110644 -0.992781 -0.0462924 34 40 41
3.83222 5.95647 -2.51498 -0.229987 -0.970194 -0.0763495 32 36 38
3.81053 5.96183 -2.52737 -0.27092 -0.962188 0.0282229 33 40 42
3.79218 5.94483 -2.50794 0.0795004 -0.92939 -0.360436 21 37 43
3.77635 5.93873 -2.49813 0.00820819 -0.999909 0.0107275 27 71 95
3.75655 5.94972 -2.49329 -0.133848 -0.723558 0.677162 39 125 176
3.71921 5.95616 -2.49662 -0.0894461 -0.62167 0.778155 26 134 200
3.68939 5.97527 -2.49483 -0.313104 -0.590176 0.744082 9 143 231
3.67421 5.95956 -2.49771 -0.334759 -0.777826 0.531905 11 143 228
3.67609 5.95406 -2.47879 -0.365803 -0.875849 0.314765 10 143 229
3.67609 5.95406 -2.47879 -0.365803 -0.875849 0.314765 10 143 229
3.66042 5.9635 -2.48733 -0.549987 -0.75768 0.351335 10 150 241
3.65181 5.94473 -2.46807 -0.465342 -0.755621 0.46097 11 149 236
3.4138 6.1519 -2.58421 -0.0568127 -0.535808 0.842426 11 148 238
3.38676 6.16513 -2.58001 0.61261 -0.08824 0.785444 16 143 224
3.37298 5.8879 -2.37014 0.953911 -0.035537 0.297976 76 77 71
3.37184 5.89805 -2.37834 0.662709 -0.296237 0.687794 76 77 72
1.08974 8.45436 -3.79766 0.787815 -0.536548 -0.302428 96 94 89
7.07731 8.58154 -5.24026 0.502626 -0.830312 0.240727 164 143 113
6.98911 8.54452 -5.18977 0.566397 -0.822549 -0.0510718 195 171 135
6.78382 8.51324 -5.09687 -0.555174 -0.688228 0.467038 194 170 134
6.7619 8.51507 -5.11025 -0.476309 -0.723084 0.50028 189 166 132
6.74662 8.51145 -5.10392 -0.57553 -0.778093 0.251668 175 154 121
6.71885 8.52734 -5.11855 -0.214236 -0.976775 0.00375118 160 140 107
6.69372 8.53513 -5.10699 -0.197108 -0.97666 0.0853392 166 145 111
6.6818 8.53071 -5.09236 0.519857 -0.824093 0.224988 180 158 123
6.66218 8.52152 -5.09282 -0.211055 -0.942068 -0.260697 193 170 134
6.59849 8.48975 -5.05672 0.157553 -0.962154 -0.222344 194 171 135
6.58755 8.51496 -5.06484 0.02905 -0.999556 -0.00660164 193 170 134
6.56236 8.49574 -5.03086 -0.237255 -0.631863 0.737875 177 157 124
6.54706 8.48665 -5.02298 -0.525904 -0.84008 -0.133008 164 144 112
6.53119 8.51942 -5.05566 -0.227301 -0.704742 0.672067 155 135 105
6.30475 6.92409 -3.80022 0.240178 -0.477822 0.844986 236 74 62
6.27976 6.93148 -3.78799 0.602735 -0.358423 0.712912 139 56 51
6.23274 6.58882 -3.51671 0.762938 -0.443258 0.470583 72 25 18
6.21971 6.58614 -3.50531 -0.00921258 -0.909651 0.41527 177 64 53
6.18668 6.59121 -3.50668 -0.00994763 -0.984831 -0.17323 239 73 56
6.11648 5.95204 -3.01219 0.225479 -0.936034 0.270186 240 72 58
6.13052 5.94247 -3.01094 0.191896 -0.385678 0.902457 241 71 56
6.1069 5.9429 -2.99998 0.311709 -0.878057 0.363116 226 83 72
6.09406 5.94077 -3.00525 0.398348 -0.397685 0.826538 142 56 50
6.07698 5.94391 -2.99296 0.716945 -0.306922 0.62593 55 30 24
6.04326 5.86139 -2.92033 0.613197 -0.770338 -0.174841 71 69 64
6.04499 5.85854 -2.93257 0.54702 -0.807206 -0.221781 69 67 63
6.04321 5.86167 -2.92053 0.612718 -0.770694 -0.174951 68 66 63
6.02911 5.84628 -2.9099 0.583681 -0.787251 -0.198878 77 74 69
5.99202 5.84091 -2.90594 0.1449 -0.552678 0.820701 111 106 91
5.97861 5.84821 -2.90122 -0.283825 -0.512952 0.810138 91 86 75
5.95052 5.83978 -2.88144 0.144643 -0.788622 0.597623 41 40 32
5.92953 5.84205 -2.89162 -0.128349 -0.519816 0.844581 46 45 38
5.89373 5.86406 -2.89451 0.042264 -0.959814 -0.277437 26 24 16
5.87838 5.85896 -2.88163 0.00672197 -0.999975 0.00196353 22 20 11
5.86231 5.86175 -2.89339 0.0576931 -0.989371 -0.13348 21 19 9
5.84727 5.86136 -2.88303 -0.00977355 -0.981741 0.189973 32 29 17
5.83169 5.86187 -2.87343 0.0320223 -0.979292 0.199906 71 67 52
5.81518 5.86017 -2.88282 -0.0324194 -0.997429 0.0639155 51 48 34
5.82099 5.85152 -2.85837 -0.274535 -0.875116 0.398501 94 88 72
5.78894 5.83093 -2.8417 -0.420558 -0.896492 0.1394 102 96 72
5.77003 5.82961 -2.83173 0.0372072 -0.989002 -0.143146 119 120 62
5.76991 5.83293 -2.85305 -0.417856 -0.893806 0.162807 96 90 70
5.76329 5.81983 -2.83099 -0.117902 -0.992775 -0.0222847 120 121 63
5.76329 5.81983 -2.83099 -0.117902 -0.992775 -0.0222847 120 121 63
5.76329 5.81983 -2.83099 -0.117902 -0.992775 -0.0222847 120 121 63
5.73086 5.82923 -2.83192 0.00262631 -0.989546 0.144197 154 162 73
5.73093 5.82964 -2.83221 0.0105493 -0.997859 0.0645528 153 160 72
5.73028 5.82953 -2.83202 -0.0737332 -0.962071 0.262644 155 162 73
5.71433 5.83312 -2.82419 -0.00413516 -0.978748 0.205025 221 239 97
5.71315 5.83162 -2.82345 0.0181548 -0.99864 0.0488651 222 241 97
5.71058 5.83241 -2.82483 0.0074784 -0.994756 0.101998 221 239 97
5.69317 5.82977 -2.83327 5.57899e-005 -0.998513 0.0545098 193 206 88
5.69561 5.83014 -2.83298 0.0268234 -0.999391 0.0223114 192 205 88
5.69392 5.83071 -2.83389 -0.00943537 -0.980249 0.197543 189 202 86
5.67754 5.83104 -2.82354 0.0201709 -0.999686 0.0148964 230 252 89
5.67725 5.83192 -2.82401 -0.0354319 -0.990331 0.134122 230 252 89
5.67864 5.82918 -2.822 0.0430508 -0.99442 -0.0963097 230 252 88
5.68028 5.82899 -2.82196 0.0491229 -0.993389 -0.103751 230 252 89
5.67838 5.82996 -2.82257 0.0183699 -0.998478 -0.0519936 230 252 89
5.66129 5.83388 -2.81485 -0.00347741 -0.989925 0.141549 231 254 83
5.65884 5.83329 -2.81474 0.0305592 -0.995818 0.0861014 230 254 84
5.66282 5.83321 -2.81426 -0.0207704 -0.992642 0.119289 230 254 83
5.64562 5.83311 -2.82424 -0.0445961 -0.995094 0.088313 230 254 83
5.64367 5.83308 -2.82368 -0.0514446 -0.992352 0.112207 230 254 83
5.62844 5.83741 -2.81686 -0.185516 -0.962065 0.200038 230 255 83
5.62661 5.83652 -2.81576 -0.246733 -0.95242 0.17894 230 255 83
5.25736 5.82075 -2.72115 0.377134 -0.926021 0.0159466 229 254 80
5.24031 5.82773 -2.70942 0.795904 -0.537073 0.279445 229 253 82
5.22891 5.81437 -2.7102 0.834075 -0.505402 0.221107 177 190 79
5.2154 5.80729 -2.69834 0.245527 -0.96488 0.0933966 85 86 44
5.18293 5.82117 -2.69387 -0.070029 -0.947153 -0.313044 68 66 56
5.16577 5.83364 -2.69743 -0.304255 -0.952351 -0.0213441 64 63 53
5.14713 5.83356 -2.70812 0.171786 -0.976022 0.133685 27 27 17
5.13291 5.83114 -2.69812 0.782833 -0.620738 0.0430795 15 15 6
5.11788 5.83087 -2.68445 -0.333535 -0.940439 0.0657905 20 21 10
5.09371 5.8194 -2.67189 0.663909 -0.733331 0.146457 89 87 72
5.10128 5.82421 -2.68714 0.738319 -0.665897 0.10708 73 73 59
5.03404 5.81235 -2.65585 0.636176 -0.757982 0.144025 80 85 46
5.02556 5.8063 -2.65871 0.132442 -0.988505 0.0729149 145 160 65
5.00946 5.8039 -2.64846 0.172256 -0.983748 0.0506744 222 246 92
4.99835 5.79011 -2.62719 0.628803 -0.766128 0.132869 229 254 81
4.31245 5.79688 -2.48602 0.206108 -0.970031 -0.128681 230 254 78
4.27705 5.78372 -2.46167 0.193941 -0.978543 -0.0695694 71 72 55
4.2573 5.78367 -2.47407 0.284804 -0.955953 -0.0709921 64 64 57
4.23606 5.78134 -2.4642 -0.0513648 -0.944092 0.325658 64 65 60
4.22081 5.79985 -2.46507 0.223983 -0.890186 -0.396738 64 66 60
4.18669 5.80396 -2.4657 -0.264456 -0.944453 0.195117 38 38 35
4.16748 5.81272 -2.45709 -0.0429432 -0.237632 0.970405 22 23 20
4.14343 5.82557 -2.46793 -0.249388 -0.447907 0.858595 49 50 45
4.12875 5.8352 -2.46738 -0.259135 -0.65836 0.70669 64 65 61
3.99562 5.90543 -2.48771 -0.215018 -0.557044 0.802166 70 74 72
3.8925 5.97313 -2.53432 0.299661 -0.908039 -0.292692 50 54 55
3.88522 5.9637 -2.51519 -0.271646 -0.957495 0.0970134 32 39 39
3.89703 5.95356 -2.50238 -0.339202 -0.915902 0.214626 31 38 38
3.85848 5.95349 -2.50047 0.0645316 -0.904212 -0.42218 24 32 35
3.83299 5.94178 -2.48509 -0.256565 -0.966043 0.0305729 26 74 103
3.82262 5.94455 -2.49358 0.0643329 -0.983672 -0.168077 20 51 68
3.78306 5.94385 -2.48024 -0.133331 -0.972745 0.189711 40 134 193
3.77567 5.94151 -2.47041 -0.118305 -0.989555 0.0823744 12 139 218
3.73928 5.95706 -2.48658 -0.220011 -0.813155 0.538864 20 136 208
3.72479 5.96492 -2.48086 -0.169929 -0.683961 0.709452 7 139 223
3.40227 6.20325 -2.57867 0.725762 0.00925457 0.687883 8 148 239
3.40854 6.17628 -2.57558 0.677187 -0.0874083 0.730601 9 149 240
3.38164 6.16595 -2.5578 0.559403 -0.0039227 0.828886 41 109 150
3.37618 6.19555 -2.56768 0.488242 -0.145047 0.86057 35 122 178
3.37853 6.12726 -2.5304 0.862596 -0.0289842 0.505063 72 78 78
3.37861 6.12657 -2.52885 0.857966 0.00541794 0.513678 73 78 77
3.35006 6.00173 -2.41659 0.558493 -0.0750553 0.826107 87 86 81
3.3731 5.88697 -2.33886 0.956976 -0.040739 0.287294 76 77 73
3.36666 5.93158 -2.38164 0.956219 -0.0394743 0.289978 80 79 75
3.36747 5.90954 -2.35561 0.972217 -0.0787013 0.220454 78 78 74
7.08443 8.56663 -5.19387 0.243754 -0.961999 -0.12305 159 139 108
7.06354 8.53898 -5.15568 0.175433 -0.977244 -0.119238 175 152 123
6.76287 8.5165 -5.08394 -0.146288 -0.975391 0.164962 193 169 134
6.74463 8.51979 -5.06984 -0.427392 -0.879333 0.210022 189 166 130
