ply
format ascii 1.0
element vertex 1184
property float x
property float y
property float z
property uchar red
property uchar green
property uchar blue
end_header
-20.597908 -8.205495 0.855509 0 255 255
-20.633638 -8.205256 0.869368 0 255 255
-20.667212 -8.207708 0.882131 0 255 255
-20.955462 -8.359939 0.979032 0 255 255
-18.690672 -7.186995 0.215439 0 255 255
-18.921154 -7.303970 0.293380 0 255 255
-19.077744 -7.389820 0.345716 0 255 255
-19.079681 -7.387261 0.346713 0 255 255
-19.124401 -7.418237 0.361036 0 255 255
-19.417057 -7.534138 0.463155 0 255 255
-19.441196 -7.577872 0.468275 0 255 255
-19.462416 -7.554958 0.478706 0 255 255
-19.483236 -7.589402 0.483439 0 255 255
-19.599018 -7.660871 0.521364 0 255 255
-19.585106 -7.637907 0.518197 0 255 255
-19.640177 -7.675605 0.535877 0 255 255
-19.620630 -7.643201 0.531440 0 255 255
-19.675734 -7.680110 0.549209 0 255 255
-19.918720 -7.798922 0.631814 0 255 255
-20.081980 -7.896138 0.685634 0 255 255
-20.139235 -7.930778 0.704457 0 255 255
-20.119984 -7.895157 0.700446 0 255 255
-20.174908 -7.929739 0.718370 0 255 255
-20.215200 -7.939031 0.733074 0 255 255
-20.695774 -8.209086 0.893058 0 255 255
-20.738325 -8.215367 0.908927 0 255 255
-18.704308 -7.159650 0.223362 0 255 255
-18.812092 -7.211267 0.260109 0 255 255
-18.813309 -7.202791 0.261400 0 255 255
-18.806530 -7.205533 0.258510 0 255 255
-18.835932 -7.220504 0.268448 0 255 255
-19.103104 -7.353131 0.359082 0 255 255
-19.146774 -7.383350 0.373071 0 255 255
-19.153231 -7.381166 0.375783 0 255 255
-19.354046 -7.475875 0.444387 0 255 255
-19.442610 -7.525444 0.473890 0 255 255
-19.490192 -7.557035 0.489261 0 255 255
-19.601719 -7.621528 0.526212 0 255 255
-19.937670 -7.764977 0.642434 0 255 255
-20.096495 -7.852105 0.695511 0 255 255
-20.148024 -7.880656 0.712705 0 255 255
-20.193386 -7.898261 0.728568 0 255 255
-20.673185 -8.135960 0.891380 0 255 255
-20.691870 -8.172336 0.895098 0 255 255
-20.719940 -8.173760 0.905831 0 255 255
-20.755404 -8.182648 0.918703 0 255 255
-20.753141 -8.176003 0.918470 0 255 255
-20.807756 -8.216110 0.935741 0 255 255
-20.807604 -8.212832 0.935999 0 255 255
-20.841003 -8.253512 0.944999 0 255 255
-21.000799 -8.319454 1.000501 0 255 255
-18.829704 -7.199027 0.268112 0 255 255
-19.181070 -7.371949 0.387454 0 255 255
-19.359386 -7.426356 0.451242 0 255 255
-19.454821 -7.502618 0.480825 0 255 255
-19.445461 -7.482457 0.479150 0 255 255
-19.581526 -7.573404 0.523045 0 255 255
-19.562185 -7.540545 0.518732 0 255 255
-20.078138 -7.820323 0.691475 0 255 255
-20.059464 -7.789127 0.687260 0 255 255
-20.115852 -7.834369 0.704721 0 255 255
-20.131199 -7.848493 0.709299 0 255 255
-20.182457 -7.880887 0.726016 0 255 255
-20.216885 -7.881294 0.739307 0 255 255
-20.659088 -8.103827 0.889027 0 255 255
-20.740589 -8.143969 0.916706 0 255 255
-20.738426 -8.147589 0.915518 0 255 255
-20.768091 -8.145286 0.927228 0 255 255
-20.821712 -8.192314 0.943445 0 255 255
-20.868572 -8.218979 0.959013 0 255 255
-21.017336 -8.288298 1.009916 0 255 255
-21.102562 -8.307987 1.041015 0 255 255
-18.772053 -7.115288 0.253883 0 255 255
-18.903303 -7.196602 0.296845 0 255 255
-19.206928 -7.340152 0.400539 0 255 255
-19.308605 -7.386143 0.435466 0 255 255
-19.397408 -7.426369 0.465963 0 255 255
-19.463572 -7.454334 0.488880 0 255 255
-19.491076 -7.489346 0.496146 0 255 255
-19.474007 -7.462974 0.492086 0 255 255
-19.529112 -7.504000 0.509457 0 255 255
-20.040459 -7.754628 0.683236 0 255 255
-20.095781 -7.786642 0.701563 0 255 255
-20.726784 -8.110870 0.914559 0 255 255
-20.754700 -8.119829 0.924503 0 255 255
-20.726885 -8.112945 0.914398 0 255 255
-20.762676 -8.114781 0.928080 0 255 255
-20.792925 -8.117963 0.939485 0 255 255
-20.802393 -8.145576 0.940482 0 255 255
-21.088419 -8.283215 1.037933 0 255 255
-18.771086 -7.081898 0.256737 0 255 255
-19.048212 -7.221703 0.350531 0 255 255
-19.222021 -7.310758 0.409225 0 255 255
-19.325750 -7.351651 0.445439 0 255 255
-19.394505 -7.376555 0.469655 0 255 255
-19.509535 -7.453612 0.506748 0 255 255
-20.001530 -7.689210 0.674485 0 255 255
-20.021435 -7.721129 0.679106 0 255 255
-20.780760 -8.080945 0.938353 0 255 255
-20.834139 -8.113910 0.955836 0 255 255
-20.867661 -8.115303 0.968681 0 255 255
-20.888239 -8.145774 0.973704 0 255 255
-19.906620 -7.593911 0.646946 0 255 255
-20.849306 -8.087222 0.964289 0 255 255
-20.905352 -8.112052 0.983591 0 255 255
-20.884142 -8.083728 0.978115 0 255 255
-21.129257 -8.206242 1.061186 0 255 255
-21.146498 -8.240417 1.064559 0 255 255
-21.144638 -8.245575 1.063339 0 255 255
-19.939608 -7.598558 0.659270 0 255 255
-20.865868 -8.049663 0.974332 0 255 255
-21.162497 -8.211960 1.073504 0 255 255
-21.198414 -8.209006 1.087697 0 255 255
-21.251326 -8.236281 1.105550 0 255 255
-19.879742 -7.516062 0.644063 0 255 255
-20.883886 -8.017568 0.984412 0 255 255
-20.900974 -8.051095 0.987787 0 255 255
-20.898123 -8.050938 0.986699 0 255 255
-21.181101 -8.179183 1.083877 0 255 255
-21.178703 -8.177804 1.083082 0 255 255
-21.169811 -8.157100 1.081640 0 255 255
-21.215988 -8.177997 1.097500 0 255 255
-21.215355 -8.176710 1.097380 0 255 255
-19.017548 -7.061038 0.354187 0 255 255
-19.843485 -7.450266 0.636384 0 255 255
-19.861357 -7.483403 0.640101 0 255 255
-20.816767 -7.950766 0.964879 0 255 255
-20.918318 -8.017320 0.997768 0 255 255
-20.952341 -8.017834 1.010893 0 255 255
-20.954235 -8.011870 1.012203 0 255 255
-20.989695 -8.017760 1.025364 0 255 255
-21.248194 -8.171647 1.110585 0 255 255
-21.239634 -8.151576 1.109210 0 255 255
-21.246548 -8.164104 1.110677 0 255 255
-18.884857 -6.960759 0.312501 0 255 255
-19.774815 -7.398966 0.614752 0 255 255
-19.810707 -7.407064 0.627867 0 255 255
-20.935602 -7.985304 1.007555 0 255 255
-20.928442 -7.961517 1.007083 0 255 255
-20.971064 -7.979243 1.021873 0 255 255
-20.989733 -8.010732 1.026058 0 255 255
-21.025702 -8.017003 1.039380 0 255 255
-21.085049 -8.027219 1.061372 0 255 255
-18.866215 -6.927335 0.308513 0 255 255
-19.003809 -6.954280 0.359187 0 255 255
-19.613981 -7.269442 0.564994 0 255 255
-19.737968 -7.345932 0.605611 0 255 255
-19.849764 -7.400917 0.643585 0 255 255
-20.987410 -7.948213 1.031201 0 255 255
-21.006184 -7.980158 1.035384 0 255 255
-18.914698 -6.909634 0.328997 0 255 255
-18.981014 -6.928953 0.352809 0 255 255
-19.036324 -6.955195 0.371689 0 255 255
-19.115427 -6.991184 0.398841 0 255 255
-19.145176 -7.026043 0.406991 0 255 255
-19.678249 -7.264629 0.590345 0 255 255
-19.754108 -7.314354 0.614912 0 255 255
-19.789186 -7.313954 0.628535 0 255 255
-21.051510 -7.950813 1.055772 0 255 255
-19.658253 -7.233572 0.585604 0 255 255
-21.070633 -7.930181 1.065171 0 255 255
-21.106199 -7.924924 1.079451 0 255 255
-21.108931 -7.932292 1.079796 0 255 255
-21.127512 -7.964472 1.083881 0 255 255
-21.325609 -8.054412 1.151895 0 255 255
-19.638821 -7.185133 0.582762 0 255 255
-19.638102 -7.186202 0.582380 0 255 255
-21.122572 -7.894301 1.088751 0 255 255
-21.140886 -7.918643 1.093490 0 255 255
-21.341595 -8.022401 1.161178 0 255 255
-19.018284 -6.822340 0.377545 0 255 255
-19.036215 -6.854792 0.381353 0 255 255
-19.071562 -6.858096 0.394720 0 255 255
-19.071562 -6.858096 0.394720 0 255 255
-19.655554 -7.155098 0.592144 0 255 255
-19.712503 -7.189450 0.610876 0 255 255
-21.139267 -7.863338 1.098208 0 255 255
-21.156788 -7.890512 1.102367 0 255 255
-21.378519 -7.995558 1.178071 0 255 255
-21.399775 -8.021339 1.183809 0 255 255
-18.935177 -6.753767 0.351994 0 255 255
-18.993153 -6.785296 0.371396 0 255 255
-19.094263 -6.854071 0.403899 0 255 255
-19.606428 -7.072570 0.581099 0 255 255
-19.801992 -7.195075 0.644984 0 255 255
-21.123293 -7.839811 1.094297 0 255 255
-21.180511 -7.866752 1.113849 0 255 255
-21.214649 -7.864443 1.127291 0 255 255
-21.445240 -7.987233 1.204711 0 255 255
-21.445290 -7.968375 1.206554 0 255 255
-18.863705 -6.686731 0.330798 0 255 255
-18.928802 -6.728431 0.351975 0 255 255
-19.643717 -7.053883 0.597345 0 255 255
-19.610865 -7.051652 0.584839 0 255 255
-19.675444 -7.071669 0.607910 0 255 255
-19.687735 -7.110305 0.608936 0 255 255
-21.176342 -7.804840 1.118219 0 255 255
-21.176010 -7.805148 1.118061 0 255 255
-21.195236 -7.842930 1.121854 0 255 255
-21.229982 -7.838559 1.135731 0 255 255
-21.262753 -7.844211 1.147874 0 255 255
-21.426941 -7.948734 1.201348 0 255 255
-21.528622 -7.981925 1.237511 0 255 255
-18.826429 -6.627285 0.322111 0 255 255
-18.844980 -6.658117 0.326314 0 255 255
-18.845167 -6.655660 0.326623 0 255 255
-18.879858 -6.656723 0.339954 0 255 255
-19.066353 -6.767229 0.401486 0 255 255
-19.681858 -7.052812 0.612217 0 255 255
-19.788319 -7.095286 0.649336 0 255 255
-21.133070 -7.761265 1.105675 0 255 255
-21.132042 -7.761703 1.105235 0 255 255
-21.210917 -7.812429 1.130873 0 255 255
-21.192671 -7.773322 1.127589 0 255 255
-21.193071 -7.773067 1.127769 0 255 255
-21.245136 -7.812715 1.144097 0 255 255
-21.279011 -7.812926 1.157193 0 255 255
-21.479416 -7.920723 1.224374 0 255 255
-21.545732 -7.948962 1.247323 0 255 255
-21.557890 -7.969625 1.250034 0 255 255
-18.981085 -6.668148 0.378046 0 255 255
-19.687553 -6.999134 0.619612 0 255 255
-19.740379 -7.038063 0.636303 0 255 255
-21.148420 -7.707393 1.116827 0 255 255
-21.183195 -7.729398 1.128166 0 255 255
-21.260960 -7.784060 1.152994 0 255 255
-21.295794 -7.779961 1.166878 0 255 255
-21.564060 -7.921038 1.257119 0 255 255
-21.566784 -7.908217 1.259414 0 255 255
-21.581095 -7.946452 1.261260 0 255 255
-18.788445 -6.563470 0.313570 0 255 255
-18.833225 -6.585675 0.328764 0 255 255
-19.082279 -6.698017 0.414343 0 255 255
-19.378979 -6.848178 0.514717 0 255 255
-19.379217 -6.847014 0.514922 0 255 255
-21.220757 -7.706763 1.144898 0 255 255
-21.235004 -7.705281 1.150558 0 255 255
-21.522202 -7.867092 1.246126 0 255 255
-21.600454 -7.904615 1.272800 0 255 255
-21.594557 -7.909681 1.270027 0 255 255
-21.602737 -7.915681 1.272614 0 255 255
-18.647724 -6.437587 0.271248 0 255 255
-18.682337 -6.457131 0.282763 0 255 255
-18.734411 -6.474313 0.301266 0 255 255
-18.757620 -6.513827 0.306433 0 255 255
-18.828650 -6.520579 0.333285 0 255 255
-18.909946 -6.571293 0.359862 0 255 255
-19.753393 -6.984688 0.646502 0 255 255
-19.791151 -6.984679 0.661124 0 255 255
-19.806488 -7.013074 0.664318 0 255 255
-21.201639 -7.673648 1.140696 0 255 255
-21.240314 -7.685873 1.154491 0 255 255
-21.257862 -7.710584 1.158896 0 255 255
-21.271288 -7.687648 1.166312 0 255 255
-21.323090 -7.721992 1.183051 0 255 255
-21.611866 -7.879007 1.279694 0 255 255
-19.307779 -6.722713 0.499274 0 255 255
-19.323826 -6.723647 0.505398 0 255 255
-19.477835 -6.817486 0.555962 0 255 255
-19.661659 -6.889277 0.620204 0 255 255
-19.679338 -6.893726 0.626620 0 255 255
-19.759644 -6.925107 0.654682 0 255 255
-19.770273 -6.951983 0.656200 0 255 255
-19.803993 -6.952048 0.669251 0 255 255
-21.303635 -7.688211 1.178784 0 255 255
-21.339905 -7.691978 1.192464 0 255 255
-18.627893 -6.359526 0.271115 0 255 255
-18.645983 -6.378571 0.276280 0 255 255
-18.739620 -6.436019 0.306985 0 255 255
-18.838753 -6.478391 0.341275 0 255 255
-18.829010 -6.462076 0.339080 0 255 255
-18.864599 -6.460496 0.353013 0 255 255
-18.873970 -6.477630 0.354985 0 255 255
-19.288591 -6.691629 0.494850 0 255 255
-19.322777 -6.694047 0.507853 0 255 255
-19.356752 -6.695912 0.520829 0 255 255
-19.446291 -6.743560 0.550895 0 255 255
-19.784952 -6.925733 0.664421 0 255 255
-19.793507 -6.928494 0.667467 0 255 255
-19.795582 -6.925336 0.668575 0 255 255
-19.822737 -6.924315 0.679189 0 255 255
-19.830566 -6.927784 0.681886 0 255 255
-21.291321 -7.616067 1.180989 0 255 255
-21.321589 -7.648318 1.189591 0 255 255
-18.578257 -6.307600 0.256915 0 255 255
-18.610956 -6.321289 0.268253 0 255 255
-18.643787 -6.328062 0.280311 0 255 255
-18.856903 -6.448068 0.351235 0 255 255
-19.304943 -6.659976 0.504240 0 255 255
-19.339315 -6.660851 0.517466 0 255 255
-19.359835 -6.688888 0.522701 0 255 255
-19.511271 -6.750410 0.575394 0 255 255
-19.512377 -6.752449 0.575625 0 255 255
-19.540009 -6.752850 0.586286 0 255 255
-19.812038 -6.894207 0.677957 0 255 255
-19.918661 -6.932931 0.715500 0 255 255
-21.360048 -7.617507 1.207463 0 255 255
-21.347937 -7.633779 1.201200 0 255 255
-21.379879 -7.642116 1.212762 0 255 255
-21.414570 -7.641737 1.226232 0 255 255
-21.481993 -7.691871 1.247493 0 255 255
-18.629274 -6.297374 0.277658 0 255 255
-18.630535 -6.292965 0.278573 0 255 255
-19.443760 -6.683898 0.555681 0 255 255
-19.526855 -6.720533 0.584316 0 255 255
-19.556341 -6.720901 0.595698 0 255 255
-19.557596 -6.753096 0.593072 0 255 255
-21.376572 -7.585871 1.216919 0 255 255
-21.395618 -7.613530 1.221621 0 255 255
-21.431105 -7.612244 1.235485 0 255 255
-21.448044 -7.643388 1.239035 0 255 255
-18.489731 -6.186369 0.234354 0 255 255
-18.614819 -6.258640 0.275805 0 255 255
-18.615345 -6.261552 0.275727 0 255 255
-18.647020 -6.270584 0.287119 0 255 255
-19.340288 -6.589861 0.524705 0 255 255
-19.541512 -6.688599 0.593079 0 255 255
-19.536308 -6.688938 0.591031 0 255 255
-19.578901 -6.721209 0.604405 0 255 255
-19.604504 -6.721617 0.614279 0 255 255
-19.569675 -6.689131 0.603932 0 255 255
-19.568697 -6.688816 0.603584 0 255 255
-19.903406 -6.867338 0.715934 0 255 255
-21.376701 -7.574175 1.218099 0 255 255
-21.459389 -7.614976 1.246173 0 255 255
-18.635010 -6.238797 0.285542 0 255 255
-18.631496 -6.218809 0.286113 0 255 255
-18.669004 -6.240007 0.298588 0 255 255
-18.666523 -6.253408 0.296331 0 255 255
-18.700785 -6.257557 0.309197 0 255 255
-18.767609 -6.291077 0.331833 0 255 255
-19.244122 -6.500785 0.496078 0 255 255
-19.244585 -6.500494 0.496285 0 255 255
-19.318451 -6.562584 0.518886 0 255 255
-19.437330 -6.604202 0.560895 0 255 255
-19.485485 -6.621994 0.577822 0 255 255
-19.556328 -6.656864 0.601883 0 255 255
-19.600723 -6.689154 0.615953 0 255 255
-19.626976 -6.688119 0.626218 0 255 255
-19.888000 -6.828262 0.713746 0 255 255
-19.878592 -6.823975 0.710517 0 255 255
-19.927155 -6.823394 0.729377 0 255 255
-21.441801 -7.544556 1.246171 0 255 255
-21.434635 -7.538368 1.243994 0 255 255
-19.280014 -6.496137 0.510425 0 255 255
-19.384439 -6.561323 0.544560 0 255 255
-19.538235 -6.622548 0.598194 0 255 255
-19.569807 -6.623124 0.610364 0 255 255
-19.644352 -6.654530 0.636194 0 255 255
-19.744223 -6.704864 0.670000 0 255 255
-19.902584 -6.797801 0.722337 0 255 255
-21.341846 -7.479796 1.213725 0 255 255
-18.369829 -6.044590 0.201631 0 255 255
-18.397303 -6.036435 0.213057 0 255 255
-18.660852 -6.185942 0.300658 0 255 255
-19.551222 -6.590630 0.606308 0 255 255
-19.584721 -6.590624 0.619280 0 255 255
-19.636629 -6.622148 0.636333 0 255 255
-19.688189 -6.655331 0.653090 0 255 255
-19.710888 -6.654830 0.661928 0 255 255
-19.804762 -6.695569 0.694340 0 255 255
-19.963034 -6.782704 0.747204 0 255 255
-18.465338 -6.033282 0.239707 0 255 255
-18.550571 -6.072357 0.268934 0 255 255
-18.676205 -6.159382 0.309170 0 255 255
-19.224184 -6.400266 0.498074 0 255 255
-19.550625 -6.558115 0.609220 0 255 255
-19.536951 -6.529696 0.606672 0 255 255
-19.577143 -6.557401 0.619558 0 255 255
-19.617302 -6.590619 0.631897 0 255 255
-19.660700 -6.621403 0.645726 0 255 255
-19.650549 -6.589782 0.644852 0 255 255
-19.708006 -6.623417 0.663850 0 255 255
-19.673941 -6.622599 0.650737 0 255 255
-19.725164 -6.622176 0.670613 0 255 255
-19.728384 -6.621321 0.671942 0 255 255
-20.010447 -6.750911 0.768636 0 255 255
-20.027754 -6.784269 0.772114 0 255 255
-18.356911 -5.973304 0.203519 0 255 255
-18.414534 -6.005538 0.222716 0 255 255
-18.567448 -6.052381 0.277400 0 255 255
-18.532217 -6.034352 0.265500 0 255 255
-18.585146 -6.081042 0.281481 0 255 255
-19.632088 -6.558442 0.640733 0 255 255
-19.638493 -6.558061 0.643250 0 255 255
-19.672857 -6.591708 0.653304 0 255 255
-19.689894 -6.590950 0.659974 0 255 255
-19.687336 -6.590444 0.659033 0 255 255
-19.720493 -6.590105 0.671904 0 255 255
-20.045641 -6.751102 0.782246 0 255 255
-18.514544 -6.008754 0.261131 0 255 255
-19.143785 -6.283173 0.478260 0 255 255
-19.569782 -6.506513 0.621626 0 255 255
-19.611359 -6.496824 0.638662 0 255 255
-19.633049 -6.525246 0.644313 0 255 255
-19.638659 -6.526002 0.646412 0 255 255
-19.680653 -6.561001 0.659291 0 255 255
-19.657476 -6.525411 0.653757 0 255 255
-19.658888 -6.526012 0.654245 0 255 255
-19.708534 -6.560250 0.670160 0 255 255
-20.062414 -6.719169 0.791828 0 255 255
-20.108641 -6.756579 0.806111 0 255 255
-18.496542 -5.970315 0.257877 0 255 255
-18.895969 -6.149888 0.395184 0 255 255
-19.126879 -6.239902 0.475897 0 255 255
-19.694799 -6.524570 0.668290 0 255 255
-19.699751 -6.527672 0.669908 0 255 255
-19.724243 -6.529103 0.679253 0 255 255
-20.128267 -6.728996 0.816377 0 255 255
-20.104271 -6.703575 0.809542 0 255 255
-18.874269 -6.104240 0.391195 0 255 255
-19.108580 -6.209037 0.471794 0 255 255
-19.081055 -6.205379 0.461489 0 255 255
-19.712452 -6.495451 0.677940 0 255 255
-19.756886 -6.498928 0.694810 0 255 255
-19.776411 -6.523604 0.699985 0 255 255
-19.917938 -6.585109 0.748842 0 255 255
-20.098602 -6.658564 0.811699 0 255 255
-18.471472 -5.884945 0.256421 0 255 255
-18.809761 -6.019254 0.374430 0 255 255
-19.032635 -6.131843 0.449848 0 255 255
-19.032583 -6.132081 0.449805 0 255 255
-19.767776 -6.466800 0.702132 0 255 255
-19.773861 -6.467954 0.704377 0 255 255
-20.087332 -6.610281 0.812002 0 255 255
-20.186375 -6.658608 0.845682 0 255 255
-18.790314 -5.974373 0.371238 0 255 255
-18.790657 -5.983271 0.370511 0 255 255
-18.948067 -6.056449 0.424389 0 255 255
-19.001986 -6.095248 0.441518 0 255 255
-19.000599 -6.092680 0.441228 0 255 255
-19.829193 -6.464325 0.726154 0 255 255
-19.828194 -6.463399 0.725855 0 255 255
-20.183411 -6.621100 0.848159 0 255 255
-18.822229 -5.976779 0.383364 0 255 255
-18.822927 -5.977679 0.383547 0 255 255
-18.930899 -6.036226 0.419697 0 255 255
-18.912149 -6.006538 0.415307 0 255 255
-18.913446 -6.004364 0.416019 0 255 255
-18.982279 -6.059321 0.437360 0 255 255
-20.249475 -6.608598 0.874950 0 255 255
-20.269688 -6.646882 0.879076 0 255 255
-20.269688 -6.646882 0.879076 0 255 255
-18.893950 -5.974858 0.411321 0 255 255
-18.952871 -6.006696 0.431060 0 255 255
-18.933729 -5.978286 0.426393 0 255 255
-19.840658 -6.404863 0.736341 0 255 255
-19.876081 -6.403063 0.750231 0 255 255
-20.279078 -6.596609 0.887571 0 255 255
-19.897810 -6.403934 0.758562 0 255 255
-19.874979 -6.370665 0.752936 0 255 255
-20.215162 -6.530726 0.869190 0 255 255
-18.782612 -5.852168 0.380069 0 255 255
-18.791086 -5.848785 0.383678 0 255 255
-18.834812 -5.875659 0.398011 0 255 255
-18.871817 -5.876707 0.412239 0 255 255
-20.338936 -6.552091 0.915053 0 255 255
-20.288830 -6.488156 0.901830 0 255 255
-20.322367 -6.511622 0.912548 0 255 255
-20.361040 -6.523579 0.926368 0 255 255
-20.200344 -6.426775 0.873501 0 255 255
-20.294582 -6.478848 0.904958 0 255 255
-20.337236 -6.482564 0.921115 0 255 255
-20.991678 -6.782333 1.145552 0 255 255
-20.116947 -6.316616 0.851855 0 255 255
-20.486732 -6.486254 0.978646 0 255 255
-20.342686 -6.377295 0.933401 0 255 255
-20.531359 -6.430791 1.001288 0 255 255
-17.900486 -10.752481 -0.435188 0 255 255
-17.906551 -10.713164 -0.429038 0 255 255
-17.934765 -10.699162 -0.416760 0 255 255
-18.047029 -10.810166 -0.384018 0 255 255
-17.974649 -10.665091 -0.398022 0 255 255
-18.003660 -10.693088 -0.389495 0 255 255
-17.991741 -10.697840 -0.394570 0 255 255
-17.995054 -10.630915 -0.386818 0 255 255
-18.011719 -10.664696 -0.383630 0 255 255
-17.108368 -9.889598 -0.658502 0 255 255
-17.125107 -9.939358 -0.656832 0 255 255
-17.165205 -9.939383 -0.641306 0 255 255
-18.005526 -10.615944 -0.381316 0 255 255
-17.922791 -10.541775 -0.406183 0 255 255
-18.023602 -10.586600 -0.371480 0 255 255
-18.082146 -10.667962 -0.356675 0 255 255
-17.984900 -10.542398 -0.382193 0 255 255
-18.090208 -10.601050 -0.347085 0 255 255
-18.078846 -10.599039 -0.351291 0 255 255
-17.063540 -9.713574 -0.658846 0 255 255
-17.723175 -10.267607 -0.456977 0 255 255
-18.105227 -10.566647 -0.337944 0 255 255
-17.778608 -10.254400 -0.434234 0 255 255
-18.125370 -10.534410 -0.327027 0 255 255
-16.735487 -9.378057 -0.753442 0 255 255
-16.756868 -9.418671 -0.749090 0 255 255
-17.821024 -10.235597 -0.415993 0 255 255
-17.836226 -10.250816 -0.411578 0 255 255
-16.756403 -9.337313 -0.741406 0 255 255
-16.780920 -9.360279 -0.734132 0 255 255
-16.777578 -9.379397 -0.737274 0 255 255
-17.813120 -10.196668 -0.415291 0 255 255
-17.855690 -10.215776 -0.400654 0 255 255
-17.845592 -10.209029 -0.403912 0 255 255
-18.140699 -10.444876 -0.312438 0 255 255
-18.183071 -10.502234 -0.301575 0 255 255
-18.228836 -10.509666 -0.284572 0 255 255
-16.838131 -9.357032 -0.711665 0 255 255
-17.096071 -9.572190 -0.632583 0 255 255
-17.862053 -10.178388 -0.394575 0 255 255
-17.893993 -10.197701 -0.384074 0 255 255
-18.149158 -10.409285 -0.305722 0 255 255
-18.249598 -10.476602 -0.273337 0 255 255
-17.883951 -10.189459 -0.387166 0 255 255
-17.961426 -10.206242 -0.358789 0 255 255
-18.030012 -10.242595 -0.335745 0 255 255
-18.333992 -10.412979 -0.234507 0 255 255
-18.362494 -10.412702 -0.223445 0 255 255
-16.903740 -9.106318 -0.662025 0 255 255
-18.432287 -10.322656 -0.187715 0 255 255
-16.921234 -9.072909 -0.652022 0 255 255
-18.473598 -10.301353 -0.169659 0 255 255
-18.257938 -10.094564 -0.233179 0 255 255
-16.943472 -8.976080 -0.634051 0 255 255
-16.970320 -8.999998 -0.625967 0 255 255
-18.135300 -9.945889 -0.266295 0 255 255
-18.148218 -9.888704 -0.255765 0 255 255
-18.185104 -9.963631 -0.248725 0 255 255
-18.208090 -9.967196 -0.240168 0 255 255
-18.218412 -9.999215 -0.239266 0 255 255
-18.282837 -10.009891 -0.215352 0 255 255
-18.524147 -10.233566 -0.143533 0 255 255
-18.599483 -10.301579 -0.120935 0 255 255
-19.720800 -11.227874 0.223723 0 255 255
-19.753410 -11.225445 0.236586 0 255 255
-17.024019 -8.960339 -0.601340 0 255 255
-18.213930 -9.931033 -0.234412 0 255 255
-18.208637 -9.931683 -0.236524 0 255 255
-18.252443 -9.936210 -0.219999 0 255 255
-18.273071 -9.971033 -0.215377 0 255 255
-18.503500 -10.156326 -0.144062 0 255 255
-18.522718 -10.170593 -0.137999 0 255 255
-19.722080 -11.155730 0.231192 0 255 255
-19.736872 -11.187981 0.233802 0 255 255
-19.770983 -11.195577 0.246277 0 255 255
-17.048529 -8.926063 -0.588536 0 255 255
-18.580933 -10.195270 -0.117842 0 255 255
-19.707857 -11.114638 0.229657 0 255 255
-19.735315 -11.140668 0.237773 0 255 255
-19.754040 -11.157813 0.243366 0 255 255
-19.754311 -11.154720 0.243770 0 255 255
-17.090561 -8.927898 -0.572437 0 255 255
-17.121120 -8.922315 -0.560064 0 255 255
-18.358072 -9.938013 -0.179272 0 255 255
-18.415014 -9.975207 -0.160818 0 255 255
-18.377275 -9.977231 -0.175627 0 255 255
-18.377201 -9.978174 -0.175747 0 255 255
-18.600779 -10.163733 -0.107110 0 255 255
-19.701775 -11.053957 0.233167 0 255 255
-19.719835 -11.086592 0.237006 0 255 255
-19.720766 -11.083884 0.237629 0 255 255
-19.740896 -11.113676 0.242544 0 255 255
-17.091686 -8.882957 -0.567657 0 255 255
-17.128292 -8.898258 -0.554962 0 255 255
-18.364393 -9.934683 -0.176502 0 255 255
-18.395226 -9.940494 -0.165125 0 255 255
-18.401838 -9.936291 -0.162158 0 255 255
-18.466406 -10.002522 -0.143558 0 255 255
-19.664427 -11.003695 0.223564 0 255 255
-17.099602 -8.822679 -0.558766 0 255 255
-19.468319 -10.781348 0.169119 0 255 255
-19.628592 -10.902780 0.219442 0 255 255
-19.731256 -11.021784 0.247693 0 255 255
-17.156452 -8.811399 -0.535662 0 255 255
-17.178467 -8.865491 -0.532366 0 255 255
-18.517868 -9.972719 -0.120750 0 255 255
-19.509609 -10.766101 0.186582 0 255 255
-19.582430 -10.814694 0.210083 0 255 255
-19.597208 -10.863323 0.211104 0 255 255
-16.899500 -8.583073 -0.613088 0 255 255
-17.205250 -8.795003 -0.515181 0 255 255
-17.227736 -8.832465 -0.510096 0 255 255
-17.229372 -8.831150 -0.509335 0 255 255
-17.241711 -8.826101 -0.504069 0 255 255
-19.167421 -10.433746 0.086206 0 255 255
-17.180574 -8.747534 -0.520148 0 255 255
-18.494823 -9.832020 -0.116072 0 255 255
-19.369637 -10.560814 0.152226 0 255 255
-17.202032 -8.734976 -0.510626 0 255 255
-17.263832 -8.760397 -0.489152 0 255 255
-18.728186 -9.974461 -0.039478 0 255 255
-19.068874 -10.265609 0.064299 0 255 255
-19.238646 -10.409966 0.116084 0 255 255
-19.292774 -10.439033 0.134234 0 255 255
-19.350691 -10.508354 0.149960 0 255 255
-19.751314 -10.838769 0.273151 0 255 255
-19.850245 -10.858764 0.309526 0 255 255
-19.950811 -10.957872 0.338887 0 255 255
-18.750078 -9.939053 -0.027579 0 255 255
-19.106339 -10.192142 0.085908 0 255 255
-19.127594 -10.224805 0.090980 0 255 255
-17.398157 -8.730724 -0.434270 0 255 255
-18.572170 -9.703989 -0.073747 0 255 255
-19.146362 -10.188237 0.101783 0 255 255
-19.531803 -10.519224 0.219040 0 255 255
-19.551115 -10.569618 0.221646 0 255 255
-19.996071 -10.911034 0.360940 0 255 255
-20.042229 -10.950266 0.375021 0 255 255
-17.376755 -8.693388 -0.438948 0 255 255
-18.613297 -9.705557 -0.057973 0 255 255
-17.395617 -8.656802 -0.428109 0 255 255
-17.389397 -8.655821 -0.430422 0 255 255
-17.439484 -8.658215 -0.411259 0 255 255
-18.638025 -9.670881 -0.045046 0 255 255
-18.639147 -9.705792 -0.047987 0 255 255
-18.656620 -9.640532 -0.034912 0 255 255
-18.671329 -9.672038 -0.032262 0 255 255
-18.695574 -9.675300 -0.023189 0 255 255
-18.769196 -9.746898 -0.001602 0 255 255
-18.786535 -9.756008 0.004232 0 255 255
-20.113445 -10.883291 0.409072 0 255 255
-20.126757 -10.913836 0.411274 0 255 255
-17.459621 -8.623487 -0.400104 0 255 255
-17.458420 -8.622907 -0.400513 0 255 255
-18.691263 -9.641330 -0.021575 0 255 255
-18.710909 -9.645730 -0.014392 0 255 255
-18.779251 -9.723106 0.004591 0 255 255
-20.182631 -10.909015 0.433375 0 255 255
-17.479006 -8.588820 -0.389248 0 255 255
-17.474438 -8.588132 -0.390950 0 255 255
-18.648735 -9.565524 -0.030716 0 255 255
-18.693130 -9.615071 -0.018314 0 255 255
-20.146311 -10.816474 0.428256 0 255 255
-20.206486 -10.845982 0.448705 0 255 255
-20.198450 -10.881485 0.442161 0 255 255
-17.393988 -8.469380 -0.410622 0 255 255
-18.770603 -9.590853 0.014026 0 255 255
-19.747414 -10.435144 0.310656 0 255 255
-19.771254 -10.469535 0.316563 0 255 255
-17.504103 -8.511791 -0.372083 0 255 255
-17.594400 -8.554101 -0.341208 0 255 255
-18.628540 -9.458999 -0.028238 0 255 255
-18.754517 -9.573718 0.009453 0 255 255
-18.775555 -9.598529 0.015202 0 255 255
-18.772221 -9.539452 0.019622 0 255 255
-18.755316 -9.515465 0.015394 0 255 255
-19.133589 -9.816844 0.132738 0 255 255
-19.397911 -10.050270 0.212524 0 255 255
-19.382923 -10.076641 0.204172 0 255 255
-19.459591 -10.096578 0.231932 0 255 255
-19.459591 -10.096578 0.231932 0 255 255
-20.283197 -10.789577 0.483861 0 255 255
-17.640049 -8.514788 -0.319732 0 255 255
-18.560553 -9.309531 -0.040116 0 255 255
-18.651808 -9.359509 -0.009611 0 255 255
-18.669363 -9.370877 -0.003913 0 255 255
-18.716352 -9.435204 0.008065 0 255 255
-18.702888 -9.410039 0.005284 0 255 255
-18.712561 -9.460862 0.004117 0 255 255
-19.832554 -10.365363 0.350369 0 255 255
-19.829199 -10.360650 0.349526 0 255 255
-20.301661 -10.789058 0.491061 0 255 255
-17.653330 -8.483138 -0.311530 0 255 255
-18.045820 -8.805456 -0.190706 0 255 255
-18.286110 -8.996295 -0.116107 0 255 255
-18.452797 -9.168117 -0.068171 0 255 255
-18.449200 -9.144353 -0.067268 0 255 255
-18.519617 -9.229868 -0.048267 0 255 255
-18.570168 -9.254942 -0.031116 0 255 255
-18.631636 -9.325227 -0.014108 0 255 255
-18.688120 -9.339733 0.006362 0 255 255
-18.670155 -9.330617 0.000286 0 255 255
-19.086906 -9.685733 0.127334 0 255 255
-19.294703 -9.868599 0.190121 0 255 255
-19.326839 -9.940927 0.195573 0 255 255
-19.760509 -10.291826 0.329580 0 255 255
-17.921852 -8.668048 -0.225427 0 255 255
-18.270056 -8.969823 -0.119765 0 255 255
-18.291666 -8.956700 -0.110128 0 255 255
-18.291557 -8.955633 -0.110067 0 255 255
-18.319820 -9.005613 -0.103955 0 255 255
-18.433147 -9.089318 -0.068163 0 255 255
-18.560076 -9.223542 -0.031989 0 255 255
-18.621344 -9.262598 -0.012040 0 255 255
-19.103853 -9.682863 0.134175 0 255 255
-20.368889 -10.753481 0.520532 0 255 255
-20.389917 -10.755394 0.528490 0 255 255
-17.717985 -8.435934 -0.281931 0 255 255
-17.892200 -8.591237 -0.229483 0 255 255
-18.255579 -8.896143 -0.118249 0 255 255
-18.272606 -8.928580 -0.114791 0 255 255
-18.327351 -8.956524 -0.096294 0 255 255
-18.413576 -9.056751 -0.072594 0 255 255
-18.808422 -9.385938 0.048479 0 255 255
-19.249813 -9.758345 0.183397 0 255 255
-20.389839 -10.739341 0.530012 0 255 255
-18.161274 -8.796483 -0.145133 0 255 255
-18.198776 -8.794938 -0.130461 0 255 255
-18.217907 -8.826391 -0.126094 0 255 255
-18.278507 -8.890663 -0.108841 0 255 255
-18.308693 -8.922998 -0.100279 0 255 255
-18.809946 -9.324513 0.055006 0 255 255
-19.262173 -9.739483 0.190006 0 255 255
-17.773787 -8.406493 -0.257478 0 255 255
-18.213938 -8.764556 -0.121654 0 255 255
-18.253969 -8.827384 -0.112226 0 255 255
-18.791704 -9.293535 0.050937 0 255 255
-18.822935 -9.282866 0.064061 0 255 255
-18.869843 -9.335075 0.077178 0 255 255
-18.890705 -9.369534 0.081925 0 255 255
-18.917103 -9.385947 0.090561 0 255 255
-19.232378 -9.672790 0.184915 0 255 255
-19.268429 -9.667954 0.199342 0 255 255
-18.309422 -8.806669 -0.088751 0 255 255
-18.327663 -8.843207 -0.085220 0 255 255
-18.381340 -8.870644 -0.067087 0 255 255
-18.738152 -9.162303 0.042885 0 255 255
-18.749561 -9.216639 0.042051 0 255 255
-18.839451 -9.289708 0.069795 0 255 255
-19.214575 -9.587996 0.186217 0 255 255
-19.263992 -9.619656 0.202293 0 255 255
-19.309250 -9.656945 0.216213 0 255 255
-19.347826 -9.700646 0.226927 0 255 255
-17.574518 -8.125557 -0.307482 0 255 255
-18.036337 -8.509774 -0.165796 0 255 255
-18.109011 -8.612730 -0.147608 0 255 255
-18.269997 -8.746479 -0.098199 0 255 255
-18.285231 -8.774240 -0.094983 0 255 255
-18.350296 -8.813095 -0.073544 0 255 255
-18.659872 -9.059539 0.022507 0 255 255
-18.707531 -9.110368 0.036049 0 255 255
-18.926138 -9.300261 0.102342 0 255 255
-18.982040 -9.333814 0.120745 0 255 255
-17.542368 -8.074956 -0.315040 0 255 255
-17.586584 -8.114448 -0.301737 0 255 255
-17.570053 -8.082434 -0.305043 0 255 255
-18.045452 -8.470259 -0.158447 0 255 255
-18.058004 -8.506008 -0.157042 0 255 255
-18.253780 -8.681993 -0.098244 0 255 255
-18.303942 -8.713320 -0.081849 0 255 255
-18.315714 -8.749694 -0.080807 0 255 255
-18.523268 -8.930382 -0.017904 0 255 255
-18.585386 -8.942719 0.004958 0 255 255
-18.596474 -8.985460 0.005119 0 255 255
-18.869213 -9.196171 0.090361 0 255 255
-18.886797 -9.232930 0.093617 0 255 255
-18.943357 -9.267554 0.112171 0 255 255
-18.963003 -9.300808 0.116564 0 255 255
-19.320509 -9.592996 0.226754 0 255 255
-20.503630 -10.620421 0.585569 0 255 255
-17.530851 -7.991434 -0.311426 0 255 255
-17.617062 -8.062769 -0.284940 0 255 255
-17.657522 -8.109404 -0.273780 0 255 255
-17.978998 -8.386969 -0.176129 0 255 255
-18.075741 -8.450183 -0.144779 0 255 255
-18.111837 -8.518057 -0.137362 0 255 255
-18.096148 -8.518846 -0.143513 0 255 255
-18.136909 -8.522020 -0.128036 0 255 255
-18.314655 -8.664856 -0.073016 0 255 255
-18.322750 -8.697010 -0.072990 0 255 255
-18.350418 -8.728304 -0.065301 0 255 255
-18.335403 -8.714337 -0.069766 0 255 255
-18.524582 -8.858970 -0.010492 0 255 255
-18.653700 -8.956913 0.030037 0 255 255
-18.678776 -8.995663 0.036002 0 255 255
-18.737341 -9.030224 0.055339 0 255 255
-18.882732 -9.163199 0.098784 0 255 255
-18.902941 -9.196388 0.103400 0 255 255
-18.923693 -9.233590 0.107840 0 255 255
-20.570427 -10.613146 0.612137 0 255 255
-17.637815 -8.042729 -0.274967 0 255 255
-18.044493 -8.421783 -0.154133 0 255 255
-18.110889 -8.456306 -0.131759 0 255 255
-18.131254 -8.486417 -0.126784 0 255 255
-18.300644 -8.601771 -0.072344 0 255 255
-18.369818 -8.697850 -0.054846 0 255 255
-18.411516 -8.716562 -0.040508 0 255 255
-18.434994 -8.732824 -0.032988 0 255 255
-18.467932 -8.746805 -0.021586 0 255 255
-18.483040 -8.775061 -0.018467 0 255 255
-18.631927 -8.896276 0.027469 0 255 255
-18.688442 -8.964463 0.042761 0 255 255
-18.682840 -8.961320 0.040895 0 255 255
-18.760565 -9.016662 0.065643 0 255 255
-18.901083 -9.130496 0.109050 0 255 255
-18.929888 -9.164319 0.116935 0 255 255
-18.938450 -9.196705 0.117120 0 255 255
-19.133480 -9.331480 0.179611 0 255 255
-19.336184 -9.496256 0.242175 0 255 255
-19.357958 -9.544098 0.245982 0 255 255
-17.523777 -7.899662 -0.305295 0 255 255
-17.575886 -7.929697 -0.288020 0 255 255
-17.622932 -7.976335 -0.274312 0 255 255
-17.672554 -8.043524 -0.261592 0 255 255
-18.096661 -8.416462 -0.133418 0 255 255
-18.317350 -8.615571 -0.067208 0 255 255
-18.549809 -8.798446 0.005127 0 255 255
-18.950613 -9.154456 0.125913 0 255 255
-19.162092 -9.295764 0.194144 0 255 255
-19.346830 -9.474207 0.248429 0 255 255
-19.397383 -9.512238 0.264328 0 255 255
-20.577711 -10.563797 0.619728 0 255 255
-20.612997 -10.565275 0.633249 0 255 255
-17.470631 -7.792440 -0.315510 0 255 255
-17.471092 -7.787889 -0.314891 0 255 255
-17.583223 -7.903659 -0.282662 0 255 255
-18.699270 -8.875409 0.055562 0 255 255
-18.846987 -9.007480 0.099994 0 255 255
-19.359758 -9.456257 0.255170 0 255 255
-20.602282 -10.536306 0.631900 0 255 255
-20.630924 -10.536319 0.642990 0 255 255
-17.350969 -7.641689 -0.347274 0 255 255
-17.426367 -7.733231 -0.326927 0 255 255
-18.355877 -8.513648 -0.042438 0 255 255
-18.396051 -8.574414 -0.032755 0 255 255
-18.425135 -8.574315 -0.021484 0 255 255
-18.447172 -8.607661 -0.016175 0 255 255
-18.468729 -8.640912 -0.011041 0 255 255
-18.571009 -8.742740 0.018720 0 255 255
-18.790398 -8.926415 0.085918 0 255 255
-19.210430 -9.274367 0.214928 0 255 255
-20.656448 -10.535586 0.652943 0 255 255
-17.788963 -7.983706 -0.210734 0 255 255
-18.306822 -8.428521 -0.053205 0 255 255
-18.295525 -8.433627 -0.058073 0 255 255
-18.401886 -8.547156 -0.027862 0 255 255
-19.247944 -9.266475 0.230218 0 255 255
-20.671757 -10.509836 0.661361 0 255 255
-17.270227 -7.479784 -0.362888 0 255 255
-17.268595 -7.479352 -0.363478 0 255 255
-18.190569 -8.309621 -0.086728 0 255 255
-18.289503 -8.365573 -0.053827 0 255 255
-18.262589 -8.362921 -0.063992 0 255 255
-18.274332 -8.393872 -0.062437 0 255 255
-18.329880 -8.419519 -0.043407 0 255 255
-19.434278 -9.392048 0.290232 0 255 255
-20.707302 -10.488399 0.677196 0 255 255
-17.102856 -7.297389 -0.410067 0 255 255
-17.165810 -7.333739 -0.389203 0 255 255
-17.200533 -7.394905 -0.381671 0 255 255
-17.239109 -7.412527 -0.368436 0 255 255
-17.497128 -7.659134 -0.292364 0 255 255
-17.528812 -7.662501 -0.280421 0 255 255
-18.126234 -8.212024 -0.102205 0 255 255
-18.121181 -8.171825 -0.100276 0 255 255
-18.274197 -8.331740 -0.056483 0 255 255
-17.254343 -7.380112 -0.359404 0 255 255
-17.256920 -7.378263 -0.358227 0 255 255
-17.220768 -7.372813 -0.371699 0 255 255
-17.273125 -7.412792 -0.355290 0 255 255
-17.262098 -7.409792 -0.359269 0 255 255
-18.369106 -8.392025 -0.025560 0 255 255
-18.485752 -8.469152 0.012153 0 255 255
-18.493820 -8.477740 0.014448 0 255 255
-19.365330 -9.248960 0.277366 0 255 255
-19.401630 -9.250355 0.291286 0 255 255
-19.406746 -9.272277 0.291149 0 255 255
-20.749924 -10.449544 0.697456 0 255 255
-20.785078 -10.447905 0.711227 0 255 255
-17.171410 -7.270541 -0.380926 0 255 255
-18.492266 -8.414995 0.019910 0 255 255
-19.280239 -9.116957 0.257177 0 255 255
-19.365015 -9.172121 0.284671 0 255 255
-20.795019 -10.419571 0.717816 0 255 255
-17.720087 -7.683361 -0.208371 0 255 255
-17.800625 -7.790445 -0.187537 0 255 255
-18.317064 -8.224916 -0.029558 0 255 255
-18.503008 -8.366760 0.028732 0 255 255
-18.557453 -8.449540 0.041813 0 255 255
-18.834763 -8.687273 0.126213 0 255 255
-19.040270 -8.856047 0.189476 0 255 255
-19.384157 -9.137939 0.295387 0 255 255
-19.577349 -9.307444 0.353810 0 255 255
-19.598389 -9.355495 0.357312 0 255 255
-20.812698 -10.392202 0.727306 0 255 255
-17.074081 -7.110238 -0.403118 0 255 255
-17.076012 -7.110741 -0.402420 0 255 255
-17.812477 -7.740072 -0.178078 0 255 255
-17.962721 -7.879900 -0.133417 0 255 255
-18.015942 -7.920417 -0.116725 0 255 255
-18.558790 -8.386065 0.048467 0 255 255
-18.573549 -8.418849 0.051013 0 255 255
-19.213894 -8.957902 0.246860 0 255 255
-19.594858 -9.281453 0.363103 0 255 255
-20.819187 -10.382854 0.730723 0 255 255
-20.831060 -10.355686 0.737947 0 255 255
-17.093349 -7.078894 -0.392627 0 255 255
-17.787750 -7.671596 -0.181033 0 255 255
-18.009525 -7.884766 -0.115763 0 255 255
-18.040659 -7.897408 -0.104930 0 255 255
-18.560654 -8.322530 0.055330 0 255 255
-18.574772 -8.354738 0.057683 0 255 255
-18.588186 -8.389274 0.059539 0 255 255
-17.563593 -7.420226 -0.243534 0 255 255
-18.094866 -7.874010 -0.081678 0 255 255
-18.516689 -8.281201 0.042301 0 255 255
-18.543045 -8.295786 0.051096 0 255 255
-18.586058 -8.317480 0.065654 0 255 255
-19.186954 -8.843165 0.247520 0 255 255
-19.678181 -9.265790 0.396881 0 255 255
-20.872883 -10.347480 0.754935 0 255 255
-17.552477 -7.393548 -0.245259 0 255 255
-17.931992 -7.690814 -0.127037 0 255 255
-18.031260 -7.788162 -0.098009 0 255 255
-18.502373 -8.186079 0.045951 0 255 255
-18.531853 -8.234676 0.052670 0 255 255
-18.574556 -8.285998 0.064244 0 255 255
-19.486792 -9.076136 0.341103 0 255 255
-19.538599 -9.114218 0.357484 0 255 255
-20.890635 -10.319218 0.764541 0 255 255
-17.345093 -7.139790 -0.301034 0 255 255
-17.459658 -7.250768 -0.267399 0 255 255
-17.851711 -7.557570 -0.145245 0 255 255
-17.905563 -7.609831 -0.129443 0 255 255
-18.092785 -7.791063 -0.074466 0 255 255
-18.060213 -7.790101 -0.086985 0 255 255
-18.095396 -7.802119 -0.074524 0 255 255
-18.290100 -7.975538 -0.015893 0 255 255
-18.348322 -8.009061 0.003411 0 255 255
-18.558680 -8.220586 0.064419 0 255 255
-18.594589 -8.216228 0.078746 0 255 255
-18.640556 -8.280144 0.090366 0 255 255
-18.660757 -8.316004 0.094722 0 255 255
-19.244358 -8.826959 0.271315 0 255 255
-20.926231 -10.276395 0.782464 0 255 255
-17.279013 -7.013951 -0.314457 0 255 255
-17.299257 -7.038401 -0.308981 0 255 255
-18.138802 -7.780946 -0.055670 0 255 255
-18.255053 -7.880600 -0.020288 0 255 255
-18.270700 -7.925425 -0.018561 0 255 255
-18.305798 -7.944949 -0.006857 0 255 255
-19.017025 -8.548291 0.210223 0 255 255
-20.986172 -10.280757 0.805252 0 255 255
-17.257891 -6.937864 -0.315282 0 255 255
-17.254694 -6.973611 -0.319975 0 255 255
-17.363663 -7.060976 -0.286225 0 255 255
-17.436220 -7.118567 -0.263695 0 255 255
-17.648678 -7.295473 -0.198528 0 255 255
-17.701994 -7.373951 -0.185468 0 255 255
-17.683788 -7.348282 -0.190037 0 255 255
-17.857849 -7.493791 -0.136704 0 255 255
-18.307238 -7.909595 -0.002883 0 255 255
-18.344536 -7.944564 0.008180 0 255 255
-20.975088 -10.250255 0.803909 0 255 255
-17.342581 -6.969881 -0.285583 0 255 255
-17.339945 -6.968019 -0.286423 0 255 255
-17.327213 -6.993974 -0.293862 0 255 255
-17.550287 -7.171834 -0.224676 0 255 255
-17.563074 -7.203277 -0.222764 0 255 255
-17.598179 -7.201054 -0.208956 0 255 255
-17.628473 -7.260011 -0.202924 0 255 255
-17.638113 -7.276829 -0.200816 0 255 255
-17.497831 -7.069680 -0.235113 0 255 255
-17.571068 -7.141834 -0.213729 0 255 255
-17.644642 -7.232172 -0.193972 0 255 255
-17.632790 -7.211880 -0.196600 0 255 255
-17.671576 -7.248921 -0.185162 0 255 255
-19.614002 -8.960619 0.401528 0 255 255
-19.787243 -9.115026 0.453685 0 255 255
-21.045418 -10.221092 0.833961 0 255 255
-17.551437 -7.076572 -0.215022 0 255 255
-17.626566 -7.165266 -0.194504 0 255 255
-18.255861 -7.697157 -0.002242 0 255 255
-21.080708 -10.208347 0.848857 0 255 255
-17.478653 -6.974969 -0.233384 0 255 255
-17.505726 -7.008642 -0.226156 0 255 255
-18.645676 -8.006925 0.118759 0 255 255
-19.522245 -8.781920 0.383272 0 255 255
-21.081297 -10.177623 0.852057 0 255 255
-21.103903 -10.198921 0.858751 0 255 255
-18.456312 -7.809009 0.064564 0 255 255
-19.065258 -8.350629 0.248006 0 255 255
-19.679108 -8.893162 0.433259 0 255 255
-19.718203 -8.897498 0.447978 0 255 255
-21.119389 -10.172850 0.867267 0 255 255
-19.555279 -8.739641 0.400149 0 255 255
-19.931311 -9.059637 0.514826 0 255 255
-21.139107 -10.138846 0.878189 0 255 255
-18.570583 -7.801409 0.109548 0 255 255
-19.164948 -8.351282 0.286545 0 255 255
-19.570940 -8.699226 0.410121 0 255 255
-19.613199 -8.750536 0.421524 0 255 255
-19.589304 -8.729309 0.414323 0 255 255
-19.625156 -8.725341 0.428590 0 255 255
-19.943243 -9.033892 0.521934 0 255 255
-19.946053 -9.037745 0.522650 0 255 255
-21.155287 -10.111279 0.887119 0 255 255
-21.170963 -10.138132 0.890594 0 255 255
-18.799774 -7.982960 0.180746 0 255 255
-19.643064 -8.694364 0.438519 0 255 255
-19.642771 -8.697967 0.438056 0 255 255
-19.717735 -8.780346 0.459121 0 255 255
-21.184399 -10.073923 0.902003 0 255 255
-18.577547 -7.697236 0.122314 0 255 255
-18.617748 -7.718348 0.135840 0 255 255
-19.601311 -8.572247 0.434155 0 255 255
-19.618196 -8.607919 0.437245 0 255 255
-19.694792 -8.655606 0.462295 0 255 255
-19.720318 -8.674091 0.470393 0 255 255
-18.638767 -7.679790 0.147706 0 255 255
-19.590481 -8.517432 0.435260 0 255 255
-19.590481 -8.517432 0.435260 0 255 255
-19.634981 -8.577533 0.446682 0 255 255
-19.732145 -8.648253 0.477470 0 255 255
-19.181017 -8.108975 0.316190 0 255 255
-19.745348 -8.627161 0.484621 0 255 255
-19.880928 -8.729624 0.527216 0 255 255
-19.990650 -8.824011 0.560579 0 255 255
-21.170258 -9.904817 0.912873 0 255 255
-21.256847 -9.988954 0.938270 0 255 255
-21.272385 -10.003706 0.942860 0 255 255
-21.268021 -10.004422 0.941101 0 255 255
-21.288347 -10.032789 0.946230 0 255 255
-18.504839 -7.471657 0.115965 0 255 255
-18.694536 -7.648967 0.172280 0 255 255
-18.729506 -7.651467 0.185580 0 255 255
-19.628983 -8.475284 0.454242 0 255 255
-19.770971 -8.589952 0.498139 0 255 255
-19.908709 -8.742766 0.536702 0 255 255
-21.054613 -9.749272 0.883129 0 255 255
-21.113449 -9.800695 0.900941 0 255 255
-21.163912 -9.871223 0.913663 0 255 255
-21.183750 -9.864533 0.921991 0 255 255
-21.195206 -9.911225 0.921915 0 255 255
-21.263996 -9.945121 0.945275 0 255 255
-21.284412 -9.993858 0.948469 0 255 255
-18.537249 -7.466990 0.128966 0 255 255
-18.717016 -7.617523 0.184024 0 255 255
-18.751493 -7.625201 0.196632 0 255 255
-19.612829 -8.416420 0.453678 0 255 255
-19.636826 -8.447145 0.459999 0 255 255
-19.678360 -8.491446 0.471800 0 255 255
-19.947182 -8.704189 0.555329 0 255 255
-19.945177 -8.705535 0.554423 0 255 255
-21.011305 -9.670645 0.873959 0 255 255
-21.027441 -9.714883 0.875932 0 255 255
-21.036816 -9.725631 0.878523 0 255 255
-21.058016 -9.715014 0.887757 0 255 255
-21.084345 -9.768491 0.892784 0 255 255
-21.161659 -9.832417 0.916542 0 255 255
-19.162409 -7.980992 0.321355 0 255 255
-19.629416 -8.384307 0.463205 0 255 255
-19.676962 -8.420115 0.478154 0 255 255
-20.029781 -8.773989 0.580567 0 255 255
-21.050432 -9.682636 0.887951 0 255 255
-21.149185 -9.760756 0.918639 0 255 255
-21.163715 -9.768984 0.923471 0 255 255
-19.666508 -8.378509 0.478128 0 255 255
-19.966789 -8.658979 0.567291 0 255 255
-20.000151 -8.674320 0.578727 0 255 255
-20.164463 -8.821202 0.628155 0 255 255
-20.841064 -9.433396 0.830972 0 255 255
-20.943419 -9.551143 0.859224 0 255 255
-20.968372 -9.582709 0.865835 0 255 255
-20.987711 -9.561155 0.875407 0 255 255
-21.317097 -9.863184 0.973756 0 255 255
-18.783634 -7.552645 0.216091 0 255 255
-18.809799 -7.580524 0.223529 0 255 255
-18.870569 -7.609759 0.244234 0 255 255
-19.316521 -8.035793 0.375733 0 255 255
-19.711544 -8.357947 0.497554 0 255 255
-19.679609 -8.356643 0.485315 0 255 255
-19.716520 -8.361578 0.499130 0 255 255
-20.810770 -9.354518 0.826866 0 255 255
-20.850019 -9.407924 0.836902 0 255 255
-20.881258 -9.450009 0.844930 0 255 255
-20.929176 -9.477086 0.860867 0 255 255
-20.939947 -9.500920 0.862734 0 255 255
-21.332378 -9.835348 0.982366 0 255 255
-21.373718 -9.888228 0.993261 0 255 255
-18.831280 -7.523248 0.237383 0 255 255
-19.982199 -8.561510 0.582680 0 255 255
-20.010868 -8.608088 0.589279 0 255 255
-20.203606 -8.800637 0.645299 0 255 255
-20.690805 -9.225359 0.792898 0 255 255
-20.725973 -9.232186 0.805855 0 255 255
-20.750706 -9.263392 0.812416 0 255 255
-20.936769 -9.436216 0.867758 0 255 255
-20.917200 -9.444428 0.859387 0 255 255
-20.932356 -9.439866 0.865696 0 255 255
-20.960318 -9.480019 0.872643 0 255 255
-21.362946 -9.815473 0.996122 0 255 255
-18.879610 -7.515112 0.256884 0 255 255
-19.767462 -8.324367 0.522453 0 255 255
-19.783480 -8.352366 0.525949 0 255 255
-19.988562 -8.516885 0.589458 0 255 255
-20.027546 -8.574963 0.598939 0 255 255
-20.045902 -8.607969 0.602857 0 255 255
-20.669670 -9.140579 0.792909 0 255 255
-20.761166 -9.239586 0.818768 0 255 255
-20.948774 -9.420980 0.873879 0 255 255
-20.981062 -9.422422 0.886242 0 255 255
-21.279877 -9.718723 0.973309 0 255 255
-21.330042 -9.732757 0.991377 0 255 255
-21.316032 -9.727315 0.986479 0 255 255
-21.344833 -9.755767 0.994881 0 255 255
-19.318031 -7.879014 0.391474 0 255 255
-19.732342 -8.266327 0.514464 0 255 255
-19.752705 -8.284723 0.520571 0 255 255
-19.799690 -8.315020 0.535835 0 255 255
-20.022064 -8.513854 0.602724 0 255 255
-20.663141 -9.087958 0.795467 0 255 255
-20.700798 -9.122270 0.806732 0 255 255
-20.892494 -9.307584 0.863048 0 255 255
-21.019976 -9.425110 0.901051 0 255 255
-21.227205 -9.645585 0.959983 0 255 255
-21.312065 -9.681783 0.989343 0 255 255
-21.378628 -9.784050 1.005232 0 255 255
-18.935085 -7.488099 0.280975 0 255 255
-19.559601 -8.072541 0.466307 0 255 255
-19.749817 -8.222849 0.525434 0 255 255
-19.767923 -8.256087 0.529232 0 255 255
-20.008434 -8.484993 0.600236 0 255 255
-20.040977 -8.477267 0.613584 0 255 255
-20.183052 -8.640513 0.652818 0 255 255
-20.637691 -9.063980 0.787931 0 255 255
-20.756731 -9.139154 0.826758 0 255 255
-20.746101 -9.124422 0.824066 0 255 255
-20.884884 -9.290551 0.861747 0 255 255
-21.198366 -9.539356 0.959084 0 255 255
-21.216738 -9.576905 0.962568 0 255 255
-21.331457 -9.652358 0.999697 0 255 255
-21.389891 -9.724041 1.015394 0 255 255
-18.951588 -7.460522 0.290031 0 255 255
-19.383545 -7.839672 0.420644 0 255 255
-19.733727 -8.195237 0.521871 0 255 255
-19.771358 -8.192704 0.536689 0 255 255
-19.802982 -8.246377 0.543746 0 255 255
-19.844849 -8.262068 0.558441 0 255 255
-19.868956 -8.292007 0.564882 0 255 255
-19.907280 -8.347640 0.574344 0 255 255
-20.025059 -8.447268 0.610320 0 255 255
-20.055878 -8.451421 0.621852 0 255 255
-20.056198 -8.454675 0.621662 0 255 255
-20.085424 -8.491180 0.629450 0 255 255
-20.126234 -8.521773 0.642295 0 255 255
-20.554226 -8.932312 0.768338 0 255 255
-21.335056 -9.647452 1.001564 0 255 255
-18.817097 -7.279830 0.255420 0 255 255
-19.023016 -7.458215 0.317913 0 255 255
-19.437860 -7.857952 0.439909 0 255 255
-19.457516 -7.888414 0.444576 0 255 255
-19.898449 -8.289148 0.576578 0 255 255
-20.072426 -8.424393 0.630872 0 255 255
-20.579271 -8.873666 0.783705 0 255 255
-20.610249 -8.927818 0.790466 0 255 255
-20.685076 -8.991033 0.813330 0 255 255
-20.999245 -9.256863 0.909286 0 255 255
-21.003084 -9.302294 0.906382 0 255 255
-21.312609 -9.547624 1.002522 0 255 255
-21.351265 -9.616200 1.010862 0 255 255
-18.800041 -7.247993 0.251893 0 255 255
-19.026426 -7.419326 0.322992 0 255 255
-19.022484 -7.453954 0.318119 0 255 255
-19.454287 -7.825285 0.449428 0 255 255
-20.055630 -8.354308 0.631144 0 255 255
-20.055334 -8.355051 0.630957 0 255 255
-20.192074 -8.478539 0.671969 0 255 255
-20.527914 -8.807530 0.770212 0 255 255
-20.707451 -8.959196 0.825071 0 255 255
-20.804834 -9.079945 0.851109 0 255 255
-20.829998 -9.104610 0.858467 0 255 255
-21.282301 -9.505438 0.994864 0 255 255
-21.348116 -9.546943 1.016337 0 255 255
-19.011587 -7.351905 0.323763 0 255 255
-19.326618 -7.680816 0.413957 0 255 255
-19.415697 -7.745452 0.442202 0 255 255
-19.450047 -7.762147 0.453889 0 255 255
-19.489143 -7.824467 0.463004 0 255 255
-20.181320 -8.467425 0.668879 0 255 255
-20.209194 -8.449588 0.681396 0 255 255
-20.662460 -8.881979 0.815114 0 255 255
-20.810125 -9.029980 0.857987 0 255 255
-20.842918 -9.033583 0.870337 0 255 255
-20.840990 -9.071710 0.865904 0 255 255
-21.158276 -9.340193 0.962813 0 255 255
-21.290268 -9.466516 1.001711 0 255 255
-21.364466 -9.514621 1.025792 0 255 255
-18.878061 -7.194471 0.287278 0 255 255
-19.511671 -7.762681 0.477699 0 255 255
-19.542469 -7.799187 0.486096 0 255 255
-19.568224 -7.824813 0.493592 0 255 255
-19.568815 -7.836761 0.492666 0 255 255
-19.590380 -7.872203 0.497590 0 255 255
-19.632147 -7.898047 0.511265 0 255 255
-19.652445 -7.925158 0.516504 0 255 255
