ply
format ascii 1.0
element vertex 1206
property float x
property float y
property float z
property uchar red
property uchar green
property uchar blue
end_header
-11.209271 -7.098122 8.628936 255 0 255
-11.110596 -7.147025 8.605721 255 0 255
-11.138124 -7.151548 8.495090 255 0 255
-11.114466 -7.165813 8.473149 255 0 255
-11.093251 -7.175763 8.471784 255 0 255
-11.124027 -7.168236 8.429235 255 0 255
-11.026282 -7.284805 7.967050 255 0 255
-11.297463 -7.038457 8.752551 255 0 255
-11.270842 -7.068461 8.637923 255 0 255
-11.197982 -7.124283 8.493701 255 0 255
-11.204817 -7.116413 8.524210 255 0 255
-11.201030 -7.132224 8.433491 255 0 255
-11.177129 -7.144247 8.426721 255 0 255
-11.132999 -7.167596 8.406806 255 0 255
-11.313224 -7.045145 8.662805 255 0 255
-11.313205 -7.055741 8.594546 255 0 255
-11.282053 -7.075291 8.560715 255 0 255
-11.147031 -7.174748 8.319166 255 0 255
-11.113112 -7.233636 8.039931 255 0 255
-11.121931 -7.236627 7.994552 255 0 255
-10.954564 -7.395277 7.467153 255 0 255
-11.040590 -7.363928 7.414638 255 0 255
-11.533468 -6.992781 8.348528 255 0 255
-11.095206 -7.346453 7.365656 255 0 255
-11.515859 -7.011104 8.282530 255 0 255
-11.150506 -7.317478 7.388773 255 0 255
-11.150624 -7.316510 7.394668 255 0 255
-11.520275 -7.012803 8.258513 255 0 255
-11.548030 -7.002054 8.245662 255 0 255
-11.179627 -7.305998 7.376595 255 0 255
-11.512777 -7.046211 8.065327 255 0 255
-11.479119 -7.058839 8.083546 255 0 255
-11.481741 -7.063841 8.043540 255 0 255
-11.867814 -6.776486 8.753360 255 0 255
-11.320890 -7.246608 7.341373 255 0 255
-11.295343 -7.253869 7.370173 255 0 255
-11.727546 -6.932961 8.159784 255 0 255
-11.703326 -6.947431 8.138181 255 0 255
-11.770504 -6.922431 8.100523 255 0 255
-11.822688 -6.908003 8.039083 255 0 255
-11.800609 -6.922123 8.013406 255 0 255
-11.781810 -6.931368 8.009453 255 0 255
-11.570502 -7.104533 7.518520 255 0 255
-11.852308 -6.891290 8.059168 255 0 255
-11.810911 -6.921373 7.987752 255 0 255
-11.905113 -6.863128 8.084441 255 0 255
-11.858250 -6.895587 8.013881 255 0 255
-11.663291 -7.067731 7.481142 255 0 255
-11.913824 -6.868934 8.021223 255 0 255
-11.966044 -6.842223 8.038872 255 0 255
-11.899406 -6.881778 7.981097 255 0 255
-11.905036 -6.881889 7.963717 255 0 255
-12.171227 -6.656818 8.626828 255 0 255
-11.907554 -6.887929 7.917334 255 0 255
-11.948440 -6.869537 7.914893 255 0 255
-11.749422 -7.049105 7.346302 255 0 255
-12.047037 -6.808135 8.018913 255 0 255
-11.984756 -6.861394 7.859900 255 0 255
-11.745564 -7.075076 7.190301 255 0 255
-12.035207 -6.836293 7.872403 255 0 255
-11.732112 -7.081888 7.186198 255 0 255
-12.216442 -6.736073 7.982093 255 0 255
-12.274220 -6.705897 8.005622 255 0 255
-12.231627 -6.739528 7.914878 255 0 255
-12.255923 -6.733367 7.882689 255 0 255
-12.011638 -6.945385 7.238888 255 0 255
-12.286864 -6.719223 7.882299 255 0 255
-12.043113 -6.932352 7.229759 255 0 255
-11.874992 -7.035530 7.062185 255 0 255
-12.364794 -6.669344 7.973204 255 0 255
-11.927694 -7.005531 7.099598 255 0 255
-11.918901 -7.021609 7.021979 255 0 255
-11.899485 -7.025110 7.056870 255 0 255
-12.369960 -6.683871 7.864265 255 0 255
-12.342516 -6.693844 7.881200 255 0 255
-12.371757 -6.685465 7.848675 255 0 255
-12.028008 -6.959764 7.097751 255 0 255
-12.004033 -6.973564 7.079747 255 0 255
-11.952280 -7.008070 7.010472 255 0 255
-12.033959 -6.973295 6.992917 255 0 255
-12.009850 -6.986626 6.978329 255 0 255
-12.076253 -6.951319 7.009407 255 0 255
-12.065375 -6.959678 6.987719 255 0 255
-10.311539 -7.585515 8.143854 255 0 255
-10.319590 -7.580368 8.153214 255 0 255
-10.346170 -7.572124 8.127689 255 0 255
-10.283308 -7.612513 8.053362 255 0 255
-10.644392 -7.320844 8.864961 255 0 255
-10.337326 -7.599144 7.979671 255 0 255
-10.668632 -7.322612 8.781830 255 0 255
-10.645797 -7.339369 8.741385 255 0 255
-10.335645 -7.589343 8.047836 255 0 255
-10.677423 -7.326512 8.730660 255 0 255
-10.370589 -7.582547 7.988231 255 0 255
-10.745893 -7.279702 8.829776 255 0 255
-10.445587 -7.555043 7.943568 255 0 255
-10.483214 -7.526955 8.013282 255 0 255
-10.330832 -7.713237 7.263396 255 0 255
-10.401028 -7.685121 7.236899 255 0 255
-10.732523 -7.410060 8.029002 255 0 255
-11.110445 -7.038542 9.305498 255 0 255
-11.281741 -7.029518 8.856713 255 0 255
-11.172065 -7.110473 8.659430 255 0 255
-11.171005 -7.142598 8.455473 255 0 255
-11.336390 -7.019238 8.761247 255 0 255
-11.336390 -7.019238 8.761247 255 0 255
-11.543766 -7.000888 8.265795 255 0 255
-11.867893 -6.778950 8.737242 255 0 255
-11.499480 -7.148647 7.444328 255 0 255
-11.597683 -7.088575 7.540948 255 0 255
-11.749796 -7.035023 7.435988 255 0 255
-11.779330 -7.023896 7.420305 255 0 255
-11.908837 -6.976237 7.344248 255 0 255
-11.931071 -6.971849 7.306737 255 0 255
-11.753029 -7.074938 7.169090 255 0 255
-12.132604 -6.801819 7.806389 255 0 255
-11.753209 -7.169624 6.558175 255 0 255
-11.828118 -7.141530 6.517586 255 0 255
-10.220382 -7.638088 8.074732 255 0 255
-10.598840 -7.348655 8.820496 255 0 255
-10.372115 -7.562659 8.111919 255 0 255
-10.398342 -7.551133 8.108602 255 0 255
-10.396797 -7.551771 8.109062 255 0 255
-10.426779 -7.536954 8.115844 255 0 255
-10.406356 -7.549770 8.093665 255 0 255
-10.374894 -7.563999 8.095059 255 0 255
-10.498529 -7.518683 8.021276 255 0 255
-10.302689 -7.724068 7.276864 255 0 255
-10.562306 -7.507583 7.904081 255 0 255
-10.562306 -7.507583 7.904081 255 0 255
-10.572614 -7.519013 7.799891 255 0 255
-11.507666 -7.002233 8.363960 255 0 255
-11.121091 -7.327248 7.412854 255 0 255
-11.993417 -6.831871 8.024588 255 0 255
-12.031691 -6.809436 8.055942 255 0 255
-12.097538 -6.817197 7.811027 255 0 255
-12.045337 -6.919849 7.303779 255 0 255
-11.702811 -7.189949 6.576304 255 0 255
-11.679659 -7.197773 6.594384 255 0 255
-11.706171 -7.187369 6.582987 255 0 255
-11.802557 -7.148923 6.545576 255 0 255
-11.783087 -7.158837 6.539282 255 0 255
-11.846887 -7.133918 6.511101 255 0 255
-11.846506 -7.134131 6.510858 255 0 255
-11.658668 -7.206272 6.601725 255 0 255
-11.781857 -7.156235 6.559698 255 0 255
-11.704226 -7.187310 6.589130 255 0 255
-11.702374 -7.188748 6.585336 255 0 255
-11.823170 -7.142197 6.527933 255 0 255
-11.766715 -7.163607 6.556993 255 0 255
-11.757838 -7.167715 6.556776 255 0 255
-11.733551 -7.176401 6.572665 255 0 255
-11.832079 -7.136485 6.538387 255 0 255
-11.815137 -7.144940 6.534019 255 0 255
-11.786206 -7.156498 6.545141 255 0 255
-11.875996 -7.121743 6.503443 255 0 255
-11.862952 -7.123775 6.528948 255 0 255
-11.860875 -7.128800 6.502699 255 0 255
-11.844934 -7.132864 6.523683 255 0 255
-10.001698 -4.762295 8.904425 0 255 255
-9.977383 -4.771655 8.917441 0 255 255
-10.128807 -4.715107 8.825222 0 255 255
-10.274413 -4.660341 8.739038 0 255 255
-10.034218 -4.756032 8.847022 0 255 255
-10.178505 -4.695506 8.801624 0 255 255
-9.752420 -4.868253 8.973968 0 255 255
-9.757374 -4.867245 8.965575 0 255 255
-9.752398 -4.869489 8.966136 0 255 255
-9.752398 -4.869489 8.966136 0 255 255
-9.764445 -4.868062 8.939160 0 255 255
-9.787848 -4.854789 8.953891 0 255 255
-9.787223 -4.857600 8.937797 0 255 255
-9.830482 -4.833337 8.963284 0 255 255
-9.796857 -4.855684 8.921175 0 255 255
-9.823128 -4.840226 8.941280 0 255 255
-9.858399 -4.825664 8.928691 0 255 255
-9.858399 -4.825664 8.928691 0 255 255
-9.818158 -4.850370 8.891321 0 255 255
-9.886681 -4.814476 8.915469 0 255 255
-9.919486 -4.800390 8.907217 0 255 255
-9.941448 -4.791550 8.897931 0 255 255
-9.955516 -4.783359 8.908148 0 255 255
-9.962723 -4.789402 8.847920 0 255 255
-10.006665 -4.765506 8.869003 0 255 255
-10.041739 -4.750974 8.856820 0 255 255
-10.083412 -4.734044 8.840179 0 255 255
-10.123711 -4.715858 8.835694 0 255 255
-10.111012 -4.724583 8.817969 0 255 255
-10.133878 -4.715012 8.810638 0 255 255
-10.157263 -4.704438 8.808161 0 255 255
-10.058302 -4.748919 8.820333 0 255 255
-9.142253 -5.382747 7.513113 0 255 255
-9.207054 -5.334552 7.627051 0 255 255
-9.261603 -5.297222 7.702257 0 255 255
-9.263051 -5.289105 7.749805 0 255 255
-9.263051 -5.289105 7.749805 0 255 255
-9.175563 -5.369306 7.499228 0 255 255
-9.192329 -5.355397 7.537906 0 255 255
-9.287485 -5.276208 7.759042 0 255 255
-9.241035 -5.343019 7.471098 0 255 255
-9.238052 -5.337286 7.516685 0 255 255
-9.249907 -5.328494 7.537379 0 255 255
-9.288808 -5.304013 7.577322 0 255 255
-9.304509 -5.283405 7.662018 0 255 255
-9.342890 -5.261534 7.686833 0 255 255
-9.326696 -5.261344 7.736572 0 255 255
-9.251528 -5.340538 7.455519 0 255 255
-9.260798 -5.327262 7.512625 0 255 255
-9.288444 -5.314041 7.514304 0 255 255
-9.324812 -5.299835 7.496143 0 255 255
-9.333332 -5.282116 7.583896 0 255 255
-9.361460 -5.247554 7.720570 0 255 255
-9.431984 -5.223247 7.664645 0 255 255
-9.521348 -5.069702 8.378492 0 255 255
-9.518888 -5.064281 8.420526 0 255 255
-9.536837 -5.048670 8.466544 0 255 255
-9.568823 -5.030883 8.484408 0 255 255
-9.333198 -5.301278 7.461795 0 255 255
-9.358762 -5.286226 7.481420 0 255 255
-9.372130 -5.267439 7.561471 0 255 255
-9.384775 -5.253484 7.612789 0 255 255
-9.401760 -5.239414 7.651845 0 255 255
-9.437877 -5.225433 7.633007 0 255 255
-9.478233 -5.208086 7.622985 0 255 255
-9.484078 -5.097216 8.314272 0 255 255
-9.498833 -5.084683 8.350175 0 255 255
-9.553336 -5.050359 8.406305 0 255 255
-9.572824 -5.034762 8.447619 0 255 255
-9.601402 -5.017891 8.469848 0 255 255
-9.601897 -5.017891 8.468356 0 255 255
-9.625491 -5.005599 8.476242 0 255 255
-9.627381 -5.004816 8.475588 0 255 255
-9.357512 -5.291189 7.453438 0 255 255
-9.396235 -5.271585 7.462731 0 255 255
-9.413564 -5.250569 7.545165 0 255 255
-9.420860 -5.239509 7.594010 0 255 255
-9.452750 -5.226441 7.582000 0 255 255
-9.477626 -5.210268 7.610855 0 255 255
-9.513686 -5.193324 7.611132 0 255 255
-9.510977 -5.087386 8.296512 0 255 255
-9.542017 -5.076752 8.271488 0 255 255
-9.587371 -5.054522 8.277708 0 255 255
-9.593717 -5.035623 8.379511 0 255 255
-9.587795 -5.036643 8.390738 0 255 255
-9.603969 -5.021422 8.439572 0 255 255
-9.633433 -5.005371 8.453905 0 255 255
-9.632742 -5.005451 8.455467 0 255 255
-9.648273 -4.987048 8.526582 0 255 255
-9.648273 -4.987048 8.526582 0 255 255
-9.693653 -4.979078 8.441552 0 255 255
-9.427306 -5.258413 7.453836 0 255 255
-9.465100 -5.237874 7.471901 0 255 255
-9.465267 -5.231371 7.512978 0 255 255
-9.491214 -5.209761 7.573381 0 255 255
-9.515409 -5.195950 7.589176 0 255 255
-9.548144 -5.181041 7.586408 0 255 255
-9.588102 -5.167076 7.555942 0 255 255
-9.553534 -5.077073 8.234924 0 255 255
-9.577806 -5.062897 8.252831 0 255 255
-9.616657 -5.042256 8.268375 0 255 255
-9.630811 -5.018342 8.378842 0 255 255
-9.637156 -5.008318 8.423909 0 255 255
-9.652683 -5.002173 8.416667 0 255 255
-9.666816 -4.992274 8.437608 0 255 255
-9.666101 -4.992361 8.439197 0 255 255
-9.703054 -4.975356 8.437182 0 255 255
-9.493244 -5.262073 7.232868 0 255 255
-9.470658 -5.242918 7.423002 0 255 255
-9.502476 -5.216573 7.496091 0 255 255
-9.524876 -5.196408 7.557882 0 255 255
-9.553435 -5.181948 7.564753 0 255 255
-9.589054 -5.168203 7.545889 0 255 255
-9.602575 -5.160468 7.554831 0 255 255
-9.634957 -5.151081 7.517810 0 255 255
-9.692479 -5.131278 7.472057 0 255 255
-9.585716 -5.064122 8.221285 0 255 255
-9.623513 -5.044371 8.234303 0 255 255
-9.606441 -5.050813 8.244277 0 255 255
-9.649502 -5.028993 8.254741 0 255 255
-9.691178 -5.010212 8.249928 0 255 255
-9.673320 -5.014871 8.273650 0 255 255
-9.667929 -5.007043 8.339857 0 255 255
-9.673108 -4.994486 8.404613 0 255 255
-9.708370 -4.980805 8.386413 0 255 255
-9.702292 -4.978828 8.417263 0 255 255
-9.737809 -4.964648 8.401502 0 255 255
-9.736270 -4.961761 8.424561 0 255 255
-9.774855 -4.947337 8.401165 0 255 255
-9.450835 -5.349302 6.802277 0 255 255
-9.503779 -5.241965 7.329852 0 255 255
-9.503629 -5.251416 7.269881 0 255 255
-9.514282 -5.227373 7.391659 0 255 255
-9.540561 -5.202091 7.474557 0 255 255
-9.559249 -5.195619 7.459928 0 255 255
-9.555385 -5.183803 7.547049 0 255 255
-9.631505 -5.153847 7.510469 0 255 255
-9.621828 -5.048982 8.209870 0 255 255
-9.657463 -5.030850 8.219011 0 255 255
-9.683564 -5.015471 8.239125 0 255 255
-9.701425 -4.993231 8.327784 0 255 255
-9.720395 -4.997550 8.243335 0 255 255
-9.701331 -4.995262 8.315085 0 255 255
-9.735935 -4.979944 8.309314 0 255 255
-9.733358 -4.982831 8.298586 0 255 255
-9.743283 -4.967028 8.369873 0 255 255
-9.771276 -4.951106 8.387791 0 255 255
-9.802270 -4.936326 8.389408 0 255 255
-9.837141 -4.919661 8.391459 0 255 255
-9.468908 -5.338964 6.814210 0 255 255
-9.517919 -5.250108 7.235424 0 255 255
-9.561804 -5.210817 7.355112 0 255 255
-9.583163 -5.190680 7.419841 0 255 255
-9.596747 -5.177759 7.461745 0 255 255
-9.586712 -5.171941 7.529019 0 255 255
-9.667645 -5.032600 8.177318 0 255 255
-9.679612 -5.018272 8.233061 0 255 255
-9.694992 -5.016426 8.198777 0 255 255
-9.717954 -5.001963 8.222431 0 255 255
-9.711969 -5.005712 8.216394 0 255 255
-9.753364 -4.988440 8.202787 0 255 255
-9.756748 -4.983488 8.224303 0 255 255
-9.770997 -4.978103 8.216030 0 255 255
-9.753612 -4.972034 8.306932 0 255 255
-9.773265 -4.967837 8.274870 0 255 255
-9.780622 -4.953300 8.345756 0 255 255
-9.808234 -4.937077 8.366740 0 255 255
-9.836062 -4.922008 8.379696 0 255 255
-9.841406 -4.921068 8.369677 0 255 255
-9.539304 -5.311940 6.776044 0 255 255
-9.529134 -5.297557 6.898466 0 255 255
-9.619298 -5.214432 7.159722 0 255 255
-9.569833 -5.227365 7.225257 0 255 255
-9.575433 -5.214844 7.288533 0 255 255
-9.738977 -5.078952 7.667239 0 255 255
-9.761875 -5.020855 7.970051 0 255 255
-9.722131 -5.003636 8.199222 0 255 255
-9.719399 -5.005412 8.196057 0 255 255
-9.792484 -4.969517 8.206535 0 255 255
-9.789392 -4.974850 8.181704 0 255 255
-9.793441 -4.956504 8.286857 0 255 255
-9.806683 -4.955198 8.255533 0 255 255
-9.816669 -4.939176 8.328041 0 255 255
-9.844270 -4.923051 8.348425 0 255 255
-9.873171 -4.907598 8.360619 0 255 255
-9.581631 -5.283139 6.833350 0 255 255
-9.592376 -5.265256 6.915469 0 255 255
-9.610138 -5.252348 6.944770 0 255 255
-9.592401 -5.262668 6.931944 0 255 255
-9.661904 -5.211267 7.052287 0 255 255
-9.666439 -5.197211 7.128561 0 255 255
-9.691569 -5.119343 7.551073 0 255 255
-9.755665 -4.998230 8.133312 0 255 255
-9.782799 -4.982014 8.155661 0 255 255
-9.829092 -4.955177 8.188519 0 255 255
-9.833131 -4.941801 8.261933 0 255 255
-9.843606 -4.941702 8.231184 0 255 255
-9.853989 -4.924777 8.308270 0 255 255
-9.879832 -4.909264 8.330003 0 255 255
-9.908052 -4.893634 8.345368 0 255 255
-9.975868 -4.857831 8.371049 0 255 255
-9.978232 -4.851774 8.402699 0 255 255
-9.601588 -5.273113 6.837635 0 255 255
-9.595607 -5.283670 6.788069 0 255 255
-9.604015 -5.257800 6.928260 0 255 255
-9.613945 -5.261267 6.876351 0 255 255
-9.629416 -5.248741 6.910068 0 255 255
-9.617917 -5.253110 6.916593 0 255 255
-9.645075 -5.236113 6.943874 0 255 255
-9.638577 -5.226816 7.022777 0 255 255
-9.660227 -5.223399 6.979755 0 255 255
-9.652730 -5.214110 7.061607 0 255 255
-9.707079 -5.179501 7.120000 0 255 255
-9.723186 -5.130221 7.386791 0 255 255
-9.709360 -5.136460 7.388334 0 255 255
-9.719237 -5.113344 7.506526 0 255 255
-9.727934 -5.102552 7.549455 0 255 255
-9.766808 -5.073298 7.619998 0 255 255
-9.795420 -5.056200 7.643580 0 255 255
-9.810226 -5.043687 7.679201 0 255 255
-9.820945 -5.018076 7.810812 0 255 255
-9.840545 -4.999105 7.873366 0 255 255
-9.824563 -4.982996 8.024243 0 255 255
-9.846156 -4.955645 8.134404 0 255 255
-9.866033 -4.940788 8.169822 0 255 255
-9.869561 -4.922787 8.274330 0 255 255
-9.894629 -4.908144 8.292827 0 255 255
-9.918218 -4.894373 8.310177 0 255 255
-10.009612 -4.838787 8.391693 0 255 255
-9.614440 -5.270870 6.813475 0 255 255
-9.627347 -5.253816 6.883815 0 255 255
-9.633709 -5.257669 6.840121 0 255 255
-9.647641 -5.234552 6.946162 0 255 255
-9.643891 -5.242974 6.903556 0 255 255
-9.676645 -5.218004 6.965050 0 255 255
-9.678782 -5.219873 6.946705 0 255 255
-9.685266 -5.200603 7.050476 0 255 255
-9.674354 -5.209816 7.024261 0 255 255
-9.676225 -5.210543 7.014011 0 255 255
-9.690810 -5.206979 6.993092 0 255 255
-9.702656 -5.188849 7.073500 0 255 255
-9.719486 -5.177177 7.097689 0 255 255
-9.727569 -5.165855 7.145854 0 255 255
-9.714992 -5.167743 7.171472 0 255 255
-9.727482 -5.156047 7.208819 0 255 255
-9.745863 -5.143663 7.232912 0 255 255
-9.762419 -5.131750 7.259470 0 255 255
-9.763512 -5.115059 7.362899 0 255 255
-9.787153 -5.096112 7.413177 0 255 255
-9.805679 -5.059473 7.591909 0 255 255
-9.831551 -5.041678 7.628137 0 255 255
-9.856671 -5.026985 7.646809 0 255 255
-9.885411 -4.986963 7.816552 0 255 255
-9.867011 -4.972566 7.963733 0 255 255
-9.894471 -4.918726 8.225655 0 255 255
-9.898467 -4.924683 8.175602 0 255 255
-9.904278 -4.908362 8.262519 0 255 255
-9.914981 -4.908423 8.230066 0 255 255
-9.926810 -4.894874 8.281231 0 255 255
-9.938508 -4.894542 8.248306 0 255 255
-9.962154 -4.880689 8.266015 0 255 255
-9.974701 -4.869747 8.298373 0 255 255
-10.009718 -4.841497 8.374045 0 255 255
-9.691792 -5.201060 7.027982 0 255 255
-9.698838 -5.191563 7.067589 0 255 255
-9.751788 -5.151929 7.162309 0 255 255
-9.743749 -5.153025 7.179398 0 255 255
-9.764097 -5.140174 7.200576 0 255 255
-9.799480 -5.108863 7.294718 0 255 255
-9.820816 -5.093073 7.331742 0 255 255
-9.832413 -5.079482 7.383885 0 255 255
-9.890829 -5.052318 7.382503 0 255 255
-9.877356 -5.024414 7.601266 0 255 255
-9.908092 -4.975761 7.820209 0 255 255
-9.900606 -4.919007 8.205466 0 255 255
-9.968442 -4.889573 8.190372 0 255 255
-9.993084 -4.865857 8.268152 0 255 255
-10.128611 -4.729393 8.734477 0 255 255
-9.770290 -5.140942 7.177109 0 255 255
-9.845845 -5.097107 7.230952 0 255 255
-9.835690 -5.094312 7.279255 0 255 255
-9.877001 -5.078504 7.256528 0 255 255
-9.877383 -5.078843 7.253215 0 255 255
-9.858989 -5.077516 7.316821 0 255 255
-9.891392 -5.064249 7.304541 0 255 255
-9.913637 -5.040301 7.390980 0 255 255
-9.914958 -5.007113 7.599197 0 255 255
-9.944436 -4.973313 7.726955 0 255 255
-9.936102 -4.982579 7.692686 0 255 255
-9.955839 -4.954050 7.815940 0 255 255
-9.961831 -4.942627 7.871017 0 255 255
-10.011106 -4.891568 8.049788 0 255 255
-10.013466 -4.878807 8.124290 0 255 255
-10.013296 -4.873097 8.161303 0 255 255
-10.033782 -4.833590 8.352496 0 255 255
-10.044126 -4.824144 8.381892 0 255 255
-10.052919 -4.809988 8.446036 0 255 255
-10.039598 -4.820574 8.418273 0 255 255
-10.117775 -4.745676 8.662856 0 255 255
-10.137258 -4.723259 8.747788 0 255 255
-10.124324 -4.733042 8.724003 0 255 255
-10.149658 -4.713564 8.772603 0 255 255
-10.136537 -4.720545 8.767301 0 255 255
-9.844239 -5.198521 6.587418 0 255 255
-9.839843 -5.106926 7.186163 0 255 255
-9.885730 -5.081519 7.211101 0 255 255
-9.919017 -5.062476 7.233097 0 255 255
-9.914131 -5.064054 7.237648 0 255 255
-9.898045 -5.062169 7.297902 0 255 255
-9.934714 -5.047558 7.281435 0 255 255
-9.924601 -5.042977 7.341020 0 255 255
-9.953740 -5.025004 7.368620 0 255 255
-9.920477 -4.996809 7.648540 0 255 255
-9.936241 -4.983620 7.685612 0 255 255
-9.956999 -4.970331 7.708380 0 255 255
-9.948047 -4.975017 7.705245 0 255 255
-9.982414 -4.949034 7.768374 0 255 255
-10.007661 -4.924881 7.847133 0 255 255
-10.021666 -4.913227 7.879671 0 255 255
-10.024347 -4.901288 7.947976 0 255 255
-10.051591 -4.875858 8.028906 0 255 255
-10.053328 -4.879315 8.001607 0 255 255
-10.076670 -4.865631 8.019145 0 255 255
-10.099326 -4.851603 8.040936 0 255 255
-10.077315 -4.803488 8.414486 0 255 255
-10.087051 -4.794340 8.443802 0 255 255
-10.091680 -4.792292 8.443024 0 255 255
-10.106560 -4.780209 8.475685 0 255 255
-10.144567 -4.724735 8.716448 0 255 255
-10.159069 -4.714658 8.737419 0 255 255
-10.162835 -4.707751 8.770284 0 255 255
-10.180260 -4.699115 8.773294 0 255 255
-10.161072 -4.703168 8.804874 0 255 255
-9.874964 -5.184928 6.582261 0 255 255
-9.896919 -5.177462 6.564204 0 255 255
-9.922386 -5.067500 7.190889 0 255 255
-9.925942 -5.065887 7.190538 0 255 255
-9.955143 -5.048188 7.216188 0 255 255
-9.958948 -5.046910 7.212964 0 255 255
-9.981232 -5.029340 7.258517 0 255 255
-9.975678 -5.030627 7.266930 0 255 255
-9.967609 -5.025458 7.324153 0 255 255
-9.991998 -5.010082 7.349375 0 255 255
-10.017807 -4.994979 7.368582 0 255 255
-10.029004 -4.894601 7.976768 0 255 255
-10.044745 -4.883475 8.000718 0 255 255
-10.113837 -4.849486 8.010990 0 255 255
-10.084244 -4.862566 8.016038 0 255 255
-10.140045 -4.824787 8.090355 0 255 255
-10.158328 -4.783042 8.302455 0 255 255
-10.130740 -4.773754 8.444495 0 255 255
-10.158197 -4.730216 8.640556 0 255 255
-10.161715 -4.723871 8.670589 0 255 255
-10.174532 -4.721675 8.646225 0 255 255
-10.184048 -4.702460 8.740550 0 255 255
-10.186769 -4.698017 8.760810 0 255 255
-10.202601 -4.687633 8.779745 0 255 255
-10.227017 -4.680101 8.754736 0 255 255
-9.918508 -5.072843 7.168348 0 255 255
-9.959422 -5.052638 7.174925 0 255 255
-9.963777 -5.050917 7.172876 0 255 255
-10.017117 -5.015899 7.236919 0 255 255
-10.009264 -5.009663 7.300318 0 255 255
-10.040382 -4.991696 7.321937 0 255 255
-10.099957 -4.858255 7.996518 0 255 255
-10.086874 -4.862361 8.009471 0 255 255
-10.121646 -4.844918 8.016796 0 255 255
-10.169703 -4.823301 8.010996 0 255 255
-10.165966 -4.822219 8.029111 0 255 255
-10.200401 -4.765507 8.288486 0 255 255
-10.213664 -4.689848 8.732439 0 255 255
-9.909977 -5.075825 7.174851 0 255 255
-9.958323 -5.056128 7.155908 0 255 255
-9.997732 -5.037521 7.156771 0 255 255
-10.001194 -5.036031 7.155922 0 255 255
-10.026877 -5.019942 7.181824 0 255 255
-10.023552 -5.021183 7.183859 0 255 255
-10.056976 -5.000549 7.215612 0 255 255
-10.088720 -4.964908 7.348350 0 255 255
-10.112162 -4.859783 7.950177 0 255 255
-10.160865 -4.830307 7.992692 0 255 255
-10.162885 -4.836137 7.949368 0 255 255
-10.198892 -4.815552 7.973078 0 255 255
-10.206584 -4.808805 7.993155 0 255 255
-10.208703 -4.805981 8.004856 0 255 255
-10.009184 -5.038554 7.115858 0 255 255
-10.068266 -5.005025 7.153167 0 255 255
-10.101294 -4.983867 7.189478 0 255 255
-10.141478 -4.953885 7.260732 0 255 255
-10.167555 -4.939747 7.272985 0 255 255
-10.236961 -4.800665 7.954168 0 255 255
-10.234545 -4.802917 7.947017 0 255 255
-10.041033 -5.025403 7.104498 0 255 255
-10.080775 -5.006324 7.107380 0 255 255
-10.111274 -4.988643 7.129040 0 255 255
-10.129263 -4.972692 7.177107 0 255 255
-10.166372 -4.942016 7.262026 0 255 255
-10.196799 -4.925476 7.276594 0 255 255
-10.222616 -4.811800 7.925964 0 255 255
-10.229121 -4.806547 7.940062 0 255 255
-10.222054 -4.808367 7.949604 0 255 255
-10.236620 -4.809582 7.898187 0 255 255
-10.280331 -4.784919 7.924886 0 255 255
-10.285069 -4.784313 7.914561 0 255 255
-10.282675 -4.777257 7.966842 0 255 255
-10.310803 -4.745936 8.082791 0 255 255
-10.334228 -4.733085 8.094765 0 255 255
-10.141227 -5.056936 6.602684 0 255 255
-10.129073 -5.070466 6.552600 0 255 255
-10.162801 -5.041232 6.638428 0 255 255
-10.164534 -5.039978 6.641263 0 255 255
-10.180947 -5.028475 6.665617 0 255 255
-10.137409 -5.035911 6.748532 0 255 255
-10.122765 -4.990441 7.083106 0 255 255
-10.161000 -4.975613 7.063334 0 255 255
-10.151500 -4.973003 7.108484 0 255 255
-10.192464 -4.957077 7.087552 0 255 255
-10.194348 -4.938998 7.197489 0 255 255
-10.208147 -4.926106 7.238560 0 255 255
-10.259901 -4.904078 7.224303 0 255 255
-10.235703 -4.799951 7.962513 0 255 255
-10.327816 -4.768093 7.890164 0 255 255
-10.363103 -4.720621 8.087924 0 255 255
-10.158017 -5.059783 6.534170 0 255 255
-10.147285 -5.072465 6.485261 0 255 255
-10.154759 -5.058887 6.549656 0 255 255
-10.172647 -5.040640 6.612713 0 255 255
-10.191200 -5.027771 6.639388 0 255 255
-10.196350 -5.025508 6.638427 0 255 255
-10.210773 -5.013321 6.673125 0 255 255
-10.196883 -5.015233 6.702518 0 255 255
-10.173282 -4.993906 6.909583 0 255 255
-10.156075 -4.989371 6.990141 0 255 255
-10.156075 -4.989371 6.990141 0 255 255
-10.180956 -4.979697 6.977428 0 255 255
-10.207560 -4.958869 7.030863 0 255 255
-10.232828 -4.941193 7.068153 0 255 255
-10.271561 -4.904390 7.187380 0 255 255
-10.301805 -4.887548 7.204425 0 255 255
-10.334309 -4.873960 7.193901 0 255 255
-10.369777 -4.752220 7.865914 0 255 255
-10.403149 -4.705331 8.065672 0 255 255
-10.134645 -5.084599 6.445560 0 255 255
-10.183020 -5.045012 6.553685 0 255 255
-10.209047 -5.024426 6.607289 0 255 255
-10.223031 -5.011464 6.648267 0 255 255
-10.219351 -5.003005 6.713372 0 255 255
-10.241795 -4.988834 6.736712 0 255 255
-10.255042 -4.977396 6.770139 0 255 255
-10.242486 -4.987795 6.741287 0 255 255
-10.258112 -4.941328 6.991529 0 255 255
-10.261810 -4.921275 7.108646 0 255 255
-10.285957 -4.901982 7.159639 0 255 255
-10.325153 -4.879957 7.182989 0 255 255
-10.413789 -4.838888 7.179961 0 255 255
-10.217615 -5.044473 6.453466 0 255 255
-10.240331 -5.031428 6.468792 0 255 255
-10.212276 -5.040830 6.492753 0 255 255
-10.218817 -5.044043 6.452613 0 255 255
-10.218817 -5.044043 6.452613 0 255 255
-10.226282 -5.021154 6.576567 0 255 255
-10.243325 -5.007802 6.610865 0 255 255
-10.255150 -4.985893 6.715501 0 255 255
-10.293873 -4.962763 6.747341 0 255 255
-10.299318 -4.946931 6.832237 0 255 255
-10.314625 -4.933650 6.871283 0 255 255
-10.306581 -4.911172 7.039085 0 255 255
-10.340282 -4.893003 7.054254 0 255 255
-10.334979 -4.884123 7.126912 0 255 255
-10.377175 -4.856554 7.176735 0 255 255
-10.422748 -4.828283 7.220912 0 255 255
-10.464693 -4.803189 7.255655 0 255 255
-10.478051 -4.788832 7.307415 0 255 255
-10.508806 -4.748805 7.471147 0 255 255
-10.465650 -4.715490 7.813452 0 255 255
-10.498119 -4.696645 7.836639 0 255 255
-10.266664 -5.027312 6.416208 0 255 255
-10.246247 -5.026360 6.483475 0 255 255
-10.256637 -5.019597 6.495571 0 255 255
-10.273940 -5.013693 6.481470 0 255 255
-10.273940 -5.013693 6.481470 0 255 255
-10.290462 -4.999687 6.521504 0 255 255
-10.299869 -4.978408 6.629352 0 255 255
-10.330692 -4.948325 6.729318 0 255 255
-10.326370 -4.957276 6.685037 0 255 255
-10.329708 -4.941676 6.774771 0 255 255
-10.351799 -4.927416 6.799737 0 255 255
-10.351154 -4.890430 7.038125 0 255 255
-10.363770 -4.877937 7.080190 0 255 255
-10.369592 -4.875041 7.081266 0 255 255
-10.370791 -4.874256 7.082693 0 255 255
-10.387696 -4.863871 7.098428 0 255 255
-10.387939 -4.858362 7.132920 0 255 255
-10.418884 -4.839789 7.158925 0 255 255
-10.413055 -4.841444 7.165812 0 255 255
-10.440306 -4.825070 7.188838 0 255 255
-10.456148 -4.812452 7.222042 0 255 255
-10.457513 -4.811660 7.223013 0 255 255
-10.440362 -4.823174 7.200790 0 255 255
-10.468219 -4.802505 7.249458 0 255 255
-10.483727 -4.790299 7.281028 0 255 255
-10.484309 -4.780720 7.340519 0 255 255
-10.496874 -4.778986 7.313951 0 255 255
-10.487531 -4.769585 7.402045 0 255 255
-10.517610 -4.756814 7.393562 0 255 255
-10.501794 -4.758014 7.433283 0 255 255
-10.518759 -4.756376 7.392925 0 255 255
-10.524544 -4.745548 7.444815 0 255 255
-10.534500 -4.745034 7.418279 0 255 255
-10.540854 -4.734418 7.467098 0 255 255
-10.540418 -4.734092 7.470496 0 255 255
-10.548279 -4.732371 7.457935 0 255 255
-10.484555 -4.715594 7.756135 0 255 255
-10.506804 -4.699550 7.792043 0 255 255
-10.539389 -4.680748 7.814609 0 255 255
-10.519559 -4.679886 7.879528 0 255 255
-10.355103 -4.979174 6.458949 0 255 255
-10.344544 -4.980951 6.479228 0 255 255
-10.383657 -4.960486 6.492862 0 255 255
-10.392878 -4.947244 6.549890 0 255 255
-10.343886 -4.954909 6.647693 0 255 255
-10.343974 -4.939822 6.743878 0 255 255
-10.361460 -4.927135 6.772597 0 255 255
-10.394664 -4.911302 6.774316 0 255 255
-10.388680 -4.873314 7.035104 0 255 255
-10.423867 -4.847980 7.091629 0 255 255
-10.452458 -4.823279 7.163872 0 255 255
-10.455048 -4.822466 7.161318 0 255 255
-10.464962 -4.824654 7.117622 0 255 255
-10.471927 -4.811642 7.179940 0 255 255
-10.472348 -4.810902 7.183414 0 255 255
-10.484715 -4.810845 7.146706 0 255 255
-10.485156 -4.810184 7.149622 0 255 255
-10.487192 -4.800139 7.207732 0 255 255
-10.487453 -4.799410 7.211612 0 255 255
-10.501010 -4.788269 7.242218 0 255 255
-10.500715 -4.787462 7.248263 0 255 255
-10.514782 -4.776541 7.275922 0 255 255
-10.529387 -4.764972 7.306121 0 255 255
-10.510489 -4.767403 7.347209 0 255 255
-10.526810 -4.755759 7.372749 0 255 255
-10.541163 -4.743779 7.406331 0 255 255
-10.541194 -4.744203 7.403531 0 255 255
-10.555814 -4.732320 7.435684 0 255 255
-10.555760 -4.732865 7.432363 0 255 255
-10.572187 -4.721320 7.456948 0 255 255
-10.571418 -4.720716 7.463112 0 255 255
-10.564973 -4.721457 7.477690 0 255 255
-10.565747 -4.721112 7.477571 0 255 255
-10.570654 -4.711300 7.525598 0 255 255
-10.570353 -4.711272 7.526684 0 255 255
-10.355663 -4.987673 6.402941 0 255 255
-10.422136 -4.919184 6.641608 0 255 255
-10.420729 -4.912249 6.690158 0 255 255
-10.391162 -4.916456 6.751865 0 255 255
-10.449389 -4.891316 6.738114 0 255 255
-10.443663 -4.877892 6.841088 0 255 255
-10.455003 -4.866703 6.878636 0 255 255
-10.490466 -4.848093 6.891352 0 255 255
-10.445713 -4.836596 7.098943 0 255 255
-10.466774 -4.838537 7.023434 0 255 255
-10.454200 -4.846505 7.010176 0 255 255
-10.477699 -4.822469 7.093420 0 255 255
-10.502181 -4.798640 7.172403 0 255 255
-10.501876 -4.799332 7.168892 0 255 255
-10.522360 -4.784938 7.199539 0 255 255
-10.518331 -4.786013 7.204747 0 255 255
-10.516104 -4.787810 7.199932 0 255 255
-10.534460 -4.774444 7.230373 0 255 255
-10.534801 -4.774075 7.231713 0 255 255
-10.541842 -4.753213 7.343976 0 255 255
-10.558412 -4.740853 7.373349 0 255 255
-10.571916 -4.730575 7.398594 0 255 255
-10.585845 -4.718096 7.436634 0 255 255
-10.585526 -4.710165 7.488295 0 255 255
-10.601427 -4.705225 7.472234 0 255 255
-10.599105 -4.699053 7.518641 0 255 255
-10.616078 -4.692864 7.507351 0 255 255
-10.435239 -4.907932 6.674284 0 255 255
-10.430960 -4.909197 6.679012 0 255 255
-10.466967 -4.889022 6.700112 0 255 255
-10.484884 -4.863676 6.808454 0 255 255
-10.492723 -4.853203 6.851922 0 255 255
-10.493293 -4.851539 6.860850 0 255 255
-10.507556 -4.840029 6.891698 0 255 255
-10.528577 -4.813072 7.001042 0 255 255
-10.487305 -4.827442 7.032854 0 255 255
-10.575793 -4.750698 7.258328 0 255 255
-10.567630 -4.762396 7.207992 0 255 255
-10.566284 -4.743433 7.333270 0 255 255
-10.595796 -4.737047 7.285665 0 255 255
-10.624452 -4.700882 7.430997 0 255 255
-10.609129 -4.698100 7.494696 0 255 255
-10.740724 -4.533693 8.151451 0 255 255
-10.443891 -4.912571 6.618701 0 255 255
-10.452667 -4.901371 6.664004 0 255 255
-10.441442 -4.898069 6.718758 0 255 255
-10.502973 -4.852831 6.823582 0 255 255
-10.518938 -4.840429 6.855032 0 255 255
-10.518100 -4.840250 6.858692 0 255 255
-10.544884 -4.825406 6.873335 0 255 255
-10.577791 -4.806380 6.896365 0 255 255
-10.542775 -4.806680 6.999365 0 255 255
-10.573283 -4.771458 7.133139 0 255 255
-10.586543 -4.775965 7.064578 0 255 255
-10.592111 -4.757987 7.162837 0 255 255
-10.609140 -4.744959 7.195107 0 255 255
-10.622378 -4.732835 7.232933 0 255 255
-10.608928 -4.725831 7.318021 0 255 255
-10.627990 -4.707980 7.375019 0 255 255
-10.651828 -4.695368 7.384217 0 255 255
-10.670691 -4.680948 7.419895 0 255 255
-10.756896 -4.537930 8.075898 0 255 255
-10.526719 -4.853835 6.746013 0 255 255
-10.551764 -4.825707 6.850783 0 255 255
-10.613291 -4.791130 6.887486 0 255 255
-10.581614 -4.790949 6.983555 0 255 255
-10.585837 -4.790435 6.974190 0 255 255
-10.648887 -4.709708 7.301364 0 255 255
-10.647921 -4.705498 7.331171 0 255 255
-10.665021 -4.693695 7.355387 0 255 255
-10.682975 -4.679578 7.391843 0 255 255
-10.700874 -4.667756 7.413783 0 255 255
-10.675875 -4.671389 7.465465 0 255 255
-10.690220 -4.658150 7.507123 0 255 255
-10.714232 -4.645496 7.516057 0 255 255
-10.696459 -4.645411 7.569855 0 255 255
-10.759568 -4.538830 8.062131 0 255 255
-10.779028 -4.526214 8.084486 0 255 255
-10.804131 -4.512405 8.097542 0 255 255
-10.591374 -4.809952 6.832829 0 255 255
-10.632933 -4.791542 6.826002 0 255 255
-10.636713 -4.778771 6.896308 0 255 255
-10.621835 -4.762589 7.044349 0 255 255
-10.671084 -4.744165 7.014555 0 255 255
-10.665217 -4.694591 7.349072 0 255 255
-10.688340 -4.681727 7.362028 0 255 255
-10.709241 -4.666664 7.395692 0 255 255
-10.719950 -4.655600 7.434332 0 255 255
-10.730349 -4.632486 7.550951 0 255 255
-10.742961 -4.618453 7.602865 0 255 255
-10.605960 -4.810036 6.788582 0 255 255
-10.645111 -4.791990 6.786640 0 255 255
-10.683404 -4.776593 6.770327 0 255 255
-10.711538 -4.762655 6.775134 0 255 255
-10.718809 -4.726054 6.987339 0 255 255
-10.709818 -4.721527 7.043224 0 255 255
-10.753206 -4.618062 7.574663 0 255 255
-10.656706 -4.791342 6.756034 0 255 255
-10.728042 -4.760071 6.742205 0 255 255
-10.769370 -4.740979 6.740420 0 255 255
-10.765962 -4.708121 6.960701 0 255 255
-10.759507 -4.702652 7.014999 0 255 255
-10.895115 -4.466842 8.116208 0 255 255
-10.945890 -4.428111 8.211670 0 255 255
-10.696844 -4.774497 6.743461 0 255 255
-10.742223 -4.757879 6.713722 0 255 255
-10.766411 -4.742831 6.737452 0 255 255
-10.805164 -4.726405 6.726339 0 255 255
-10.816537 -4.704911 6.829674 0 255 255
-10.820241 -4.681611 6.967535 0 255 255
-10.860126 -4.665675 6.949897 0 255 255
-10.966590 -4.487905 7.767374 0 255 255
-10.921273 -4.460902 8.075803 0 255 255
-10.940447 -4.452714 8.070692 0 255 255
-10.949868 -4.428704 8.195964 0 255 255
-10.959737 -4.418536 8.231393 0 255 255
-10.780869 -4.733986 6.750675 0 255 255
-10.858500 -4.704291 6.707890 0 255 255
-10.846296 -4.702294 6.757229 0 255 255
-10.869207 -4.682538 6.814883 0 255 255
-10.913130 -4.645401 6.920694 0 255 255
-11.003124 -4.472356 7.757313 0 255 255
-10.977136 -4.416502 8.192262 0 255 255
-10.970487 -4.418403 8.200032 0 255 255
-10.827909 -4.719876 6.699922 0 255 255
-10.897476 -4.688549 6.691751 0 255 255
-10.886897 -4.685962 6.739987 0 255 255
-10.916677 -4.664433 6.788383 0 255 255
-10.947748 -4.634637 6.885767 0 255 255
-10.986052 -4.620772 6.859635 0 255 255
-11.050235 -4.454522 7.730170 0 255 255
-10.871677 -4.703341 6.674484 0 255 255
-10.915580 -4.686427 6.651074 0 255 255
-10.936587 -4.674090 6.666994 0 255 255
-10.933870 -4.667836 6.715108 0 255 255
-10.991236 -4.617545 6.864739 0 255 255
-11.018645 -4.609626 6.833233 0 255 255
-11.050611 -4.590149 6.861963 0 255 255
-11.083082 -4.578441 6.839525 0 255 255
-10.978234 -4.650460 6.693266 0 255 255
-11.010916 -4.619439 6.793658 0 255 255
-11.065186 -4.607379 6.708143 0 255 255
-11.083432 -4.578923 6.835386 0 255 255
-11.241005 -4.378310 7.645758 0 255 255
-11.338139 -4.340063 7.599220 0 255 255
-11.323174 -4.345881 7.606864 0 255 255
-9.240521 -5.301493 7.738117 0 255 255
-9.249905 -5.318654 7.600291 0 255 255
-9.241920 -5.315189 7.646368 0 255 255
-9.265849 -5.298300 7.682641 0 255 255
-9.231943 -5.347367 7.470548 0 255 255
-9.280324 -5.300660 7.624176 0 255 255
-9.330799 -5.294237 7.513993 0 255 255
-9.317540 -5.286400 7.603824 0 255 255
-9.335068 -5.309350 7.404579 0 255 255
-9.515256 -5.065961 8.420665 0 255 255
-9.596373 -5.017622 8.486628 0 255 255
-9.593540 -5.018893 8.486999 0 255 255
-9.595008 -5.018369 8.485947 0 255 255
-9.556650 -5.032352 8.511490 0 255 255
-9.375008 -5.294259 7.381388 0 255 255
-9.397972 -5.275461 7.432755 0 255 255
-9.577637 -5.050080 8.335274 0 255 255
-9.659933 -4.992355 8.457713 0 255 255
-9.658752 -4.992882 8.457882 0 255 255
-9.659790 -4.992298 8.458501 0 255 255
-9.453337 -5.324109 6.955847 0 255 255
-9.494623 -5.296086 7.011285 0 255 255
-9.498797 -5.289088 7.043518 0 255 255
-9.494745 -5.286596 7.071587 0 255 255
-9.426726 -5.264015 7.419769 0 255 255
-9.624804 -5.034200 8.295464 0 255 255
-9.517483 -5.279024 7.051866 0 255 255
-9.528440 -5.270668 7.072452 0 255 255
-9.539686 -5.262158 7.093158 0 255 255
-9.547366 -5.250414 7.145230 0 255 255
-9.547629 -5.251016 7.140592 0 255 255
-9.548794 -5.250910 7.137780 0 255 255
-9.505023 -5.222693 7.449322 0 255 255
-9.801041 -4.939662 8.371774 0 255 255
-9.500247 -5.303972 6.944020 0 255 255
-9.524497 -5.284663 6.994802 0 255 255
-9.546291 -5.232242 7.264619 0 255 255
-9.550274 -5.207738 7.409338 0 255 255
-9.615756 -5.228823 7.078331 0 255 255
-9.560881 -5.242140 7.157632 0 255 255
-9.574103 -5.298225 6.759459 0 255 255
-9.580700 -5.286094 6.817240 0 255 255
-9.607087 -5.253074 6.949273 0 255 255
-9.580812 -5.261184 6.976154 0 255 255
-9.592612 -5.246456 7.034952 0 255 255
-9.630486 -5.216978 7.109928 0 255 255
-9.627556 -5.199680 7.229286 0 255 255
-9.627593 -5.171275 7.410767 0 255 255
-9.603330 -5.274891 6.821051 0 255 255
-9.621540 -5.240252 6.987937 0 255 255
-9.670811 -5.202230 7.083378 0 255 255
-9.690301 -5.172670 7.213954 0 255 255
-9.717852 -5.157467 7.228592 0 255 255
-9.695786 -5.161728 7.267473 0 255 255
-9.696907 -5.153196 7.318658 0 255 255
-9.646390 -5.158140 7.438429 0 255 255
-9.691002 -5.117302 7.565826 0 255 255
-9.744808 -5.085824 7.605837 0 255 255
-9.738830 -5.085886 7.623353 0 255 255
-9.795838 -5.051630 7.671535 0 255 255
-9.800724 -5.006475 7.945569 0 255 255
-9.780806 -4.998134 8.058579 0 255 255
-9.762400 -4.988628 8.174503 0 255 255
-9.623782 -5.278029 6.739701 0 255 255
-9.664614 -5.269687 6.670693 0 255 255
-9.728705 -5.146812 7.264197 0 255 255
-9.737746 -5.136559 7.302648 0 255 255
-9.830531 -5.002226 7.883419 0 255 255
-9.829966 -5.003417 7.877507 0 255 255
-9.824281 -5.009300 7.856918 0 255 255
-9.824281 -5.009300 7.856918 0 255 255
-9.844303 -4.990521 7.916984 0 255 255
-9.899684 -4.889037 8.399837 0 255 255
-9.640808 -5.257652 6.818964 0 255 255
-9.649690 -5.236539 6.927329 0 255 255
-9.659638 -5.242363 6.860280 0 255 255
-9.706464 -5.189737 7.056409 0 255 255
-9.772608 -5.129163 7.245471 0 255 255
-9.777377 -5.119949 7.290078 0 255 255
-9.780581 -5.108528 7.353494 0 255 255
-9.831491 -5.068646 7.455910 0 255 255
-9.821655 -5.063358 7.519196 0 255 255
-9.825609 -5.024458 7.756041 0 255 255
-9.864099 -5.002199 7.783012 0 255 255
-9.892032 -4.938992 8.103400 0 255 255
-9.896417 -4.934064 8.121770 0 255 255
-10.036814 -4.814300 8.466733 0 255 255
-10.055546 -4.805661 8.465835 0 255 255
-9.690215 -5.218169 6.923340 0 255 255
-9.699802 -5.206948 6.966346 0 255 255
-9.719507 -5.178895 7.086648 0 255 255
-9.833869 -5.075940 7.402160 0 255 255
-9.865447 -5.047524 7.489203 0 255 255
-9.884511 -5.004626 7.706331 0 255 255
-9.899545 -4.989245 7.759620 0 255 255
-9.935640 -4.894783 8.255364 0 255 255
-10.023875 -4.829123 8.410730 0 255 255
-10.063514 -4.798349 8.488703 0 255 255
-10.070867 -4.789578 8.522745 0 255 255
-10.082290 -4.781098 8.542724 0 255 255
-9.767700 -5.151010 7.120503 0 255 255
-9.952518 -4.952397 7.836459 0 255 255
-9.981561 -4.930327 7.890525 0 255 255
-9.979035 -4.926762 7.920887 0 255 255
-9.984006 -4.908403 8.023355 0 255 255
-9.986284 -4.869533 8.265031 0 255 255
-9.994613 -4.855554 8.329444 0 255 255
-10.018264 -4.840058 8.357636 0 255 255
-10.060095 -4.818690 8.368909 0 255 255
-10.056458 -4.809248 8.440166 0 255 255
-10.096274 -4.783112 8.487949 0 255 255
-10.078856 -4.786430 8.518929 0 255 255
-10.082476 -4.778644 8.557859 0 255 255
-10.075896 -4.770756 8.627995 0 255 255
-10.111457 -4.742463 8.702320 0 255 255
-10.088427 -4.729774 8.852451 0 255 255
-9.966814 -5.012911 7.406753 0 255 255
-9.958283 -5.006246 7.474926 0 255 255
-9.958283 -5.006246 7.474926 0 255 255
-9.958283 -5.006246 7.474926 0 255 255
-9.975237 -4.939451 7.851152 0 255 255
-9.986142 -4.926315 7.902447 0 255 255
-10.027965 -4.891818 7.997671 0 255 255
-10.018498 -4.881338 8.093033 0 255 255
-10.047695 -4.854694 8.175883 0 255 255
-10.019254 -4.853605 8.268071 0 255 255
-10.103568 -4.774405 8.521762 0 255 255
-10.083558 -4.775971 8.571700 0 255 255
-10.101488 -4.763865 8.595370 0 255 255
-10.110240 -4.744829 8.690850 0 255 255
-10.133092 -4.716803 8.801542 0 255 255
-9.839545 -5.105096 7.198756 0 255 255
-9.868169 -5.091551 7.199586 0 255 255
-9.926622 -4.996356 7.633010 0 255 255
-9.962095 -4.958161 7.770908 0 255 255
-9.982634 -4.951178 7.754015 0 255 255
-9.977292 -4.944642 7.811795 0 255 255
-10.027035 -4.915241 7.850710 0 255 255
-10.030500 -4.908849 7.881191 0 255 255
-10.057631 -4.879025 7.990561 0 255 255
-10.116720 -4.753595 8.615392 0 255 255
-10.135192 -4.750665 8.578764 0 255 255
-10.123333 -4.754221 8.591566 0 255 255
-10.139261 -4.734785 8.668099 0 255 255
-10.152357 -4.724633 8.693765 0 255 255
-9.995085 -4.920784 7.911013 0 255 255
-10.167141 -4.813940 8.078516 0 255 255
-10.117080 -4.791253 8.373563 0 255 255
-10.142102 -4.741372 8.617481 0 255 255
-10.175323 -4.713508 8.696073 0 255 255
-10.028640 -5.027298 7.129517 0 255 255
-10.092102 -4.971393 7.296759 0 255 255
-10.180846 -4.795146 8.157604 0 255 255
-10.175246 -4.789814 8.208464 0 255 255
-10.191065 -4.737864 8.493191 0 255 255
-10.201783 -4.728148 8.523184 0 255 255
-10.162427 -4.731531 8.619487 0 255 255
-10.191767 -4.709846 8.670202 0 255 255
-10.239457 -4.676613 8.739765 0 255 255
-10.079733 -4.981834 7.267066 0 255 255
-10.219410 -4.780540 8.135416 0 255 255
-10.207752 -4.734568 8.464259 0 255 255
-10.211089 -4.728087 8.495692 0 255 255
-10.221196 -4.723052 8.497593 0 255 255
-10.204372 -4.718646 8.576180 0 255 255
-10.195650 -4.719026 8.599882 0 255 255
-10.225830 -4.717628 8.518379 0 255 255
-10.217745 -4.706512 8.613678 0 255 255
-10.274314 -4.676076 8.638755 0 255 255
-10.288277 -4.664630 8.670087 0 255 255
-10.269896 -4.668366 8.701277 0 255 255
-10.043056 -5.115416 6.522977 0 255 255
-10.145948 -4.967115 7.162769 0 255 255
-10.121638 -4.965760 7.244271 0 255 255
-10.161553 -4.952608 7.208751 0 255 255
-10.244231 -4.791977 7.987930 0 255 255
-10.266685 -4.763234 8.104403 0 255 255
-10.290730 -4.749483 8.120270 0 255 255
-10.283405 -4.744793 8.172203 0 255 255
-10.244015 -4.712582 8.496152 0 255 255
-10.270939 -4.698850 8.503274 0 255 255
-10.283362 -4.686657 8.543980 0 255 255
-10.293840 -4.677394 8.571816 0 255 255
-10.295209 -4.671773 8.603651 0 255 255
-10.326839 -4.646317 8.671608 0 255 255
-10.341603 -4.635353 8.697459 0 255 255
-10.362504 -4.623653 8.709638 0 255 255
-10.091617 -5.005580 7.079656 0 255 255
-10.253010 -4.800218 7.908945 0 255 255
-10.320049 -4.763883 7.940354 0 255 255
-10.316683 -4.731124 8.159875 0 255 255
-10.316683 -4.731124 8.159875 0 255 255
-10.310581 -4.731024 8.178790 0 255 255
-10.316683 -4.731124 8.159875 0 255 255
-10.310581 -4.731024 8.178790 0 255 255
-10.333975 -4.661880 8.550737 0 255 255
-10.338541 -4.652261 8.598541 0 255 255
-10.368614 -4.623610 8.691598 0 255 255
-10.120478 -5.087599 6.468827 0 255 255
-10.214160 -5.004922 6.716670 0 255 255
-10.234135 -4.988901 6.759235 0 255 255
-10.214002 -4.939956 7.132473 0 255 255
-10.240548 -4.919047 7.186600 0 255 255
-10.292110 -4.788812 7.864694 0 255 255
-10.325757 -4.761110 7.940976 0 255 255
-10.168133 -5.064597 6.473079 0 255 255
-10.179272 -5.055978 6.494800 0 255 255
-10.247489 -4.998028 6.660876 0 255 255
-10.269146 -4.962861 6.820807 0 255 255
-10.235207 -4.961648 6.930266 0 255 255
-10.246305 -4.936417 7.058307 0 255 255
-10.367626 -4.745440 7.915702 0 255 255
-10.408367 -4.723121 7.936309 0 255 255
-10.367960 -4.736324 7.972976 0 255 255
-10.268534 -4.995046 6.616875 0 255 255
-10.275640 -4.972988 6.736607 0 255 255
-10.267852 -4.941808 6.959275 0 255 255
-10.291809 -4.925002 6.994927 0 255 255
-10.311108 -4.903262 7.076088 0 255 255
-10.451621 -4.812792 7.233427 0 255 255
-10.409852 -4.729635 7.890221 0 255 255
-10.405185 -4.721509 7.956148 0 255 255
-10.435534 -4.711000 7.932390 0 255 255
-10.480691 -4.675476 8.024192 0 255 255
-10.445107 -4.689701 8.039877 0 255 255
-10.514729 -4.658295 8.032032 0 255 255
-10.294540 -5.012854 6.425100 0 255 255
-10.273940 -5.013693 6.481470 0 255 255
-10.312918 -4.998022 6.464859 0 255 255
-10.285806 -4.976800 6.681770 0 255 255
-10.353510 -4.913550 6.883263 0 255 255
-10.313786 -4.920780 6.956067 0 255 255
-10.331497 -4.905780 6.998886 0 255 255
-10.429650 -4.735264 7.794897 0 255 255
-10.464306 -4.687268 7.997898 0 255 255
-10.519803 -4.660195 8.004688 0 255 255
-10.323959 -5.006825 6.375498 0 255 255
-10.337301 -4.993624 6.419911 0 255 255
-10.413028 -4.931521 6.590028 0 255 255
-10.391008 -4.926512 6.688037 0 255 255
-10.388887 -4.905315 6.829896 0 255 255
-10.398677 -4.882494 6.946466 0 255 255
-10.563021 -4.719203 7.497949 0 255 255
-10.576201 -4.716629 7.474909 0 255 255
-10.552668 -4.714941 7.556213 0 255 255
-10.553342 -4.664730 7.875202 0 255 255
-10.555240 -4.645904 7.989871 0 255 255
-10.372568 -4.964709 6.499097 0 255 255
-10.414346 -4.935625 6.559850 0 255 255
-10.441384 -4.865866 6.924792 0 255 255
-10.580054 -4.700375 7.567273 0 255 255
-10.592880 -4.688697 7.603509 0 255 255
-10.534849 -4.697518 7.720992 0 255 255
-10.560995 -4.684011 7.729001 0 255 255
-10.578653 -4.669274 7.770307 0 255 255
-10.560048 -4.664141 7.858874 0 255 255
-10.557237 -4.652249 7.943314 0 255 255
-10.591530 -4.631314 7.974399 0 255 255
-10.616549 -4.615517 8.000428 0 255 255
-10.466982 -4.878778 6.765549 0 255 255
-10.504169 -4.836539 6.924153 0 255 255
-10.501564 -4.826536 6.995908 0 255 255
-10.519938 -4.803200 7.090040 0 255 255
-10.514425 -4.796860 7.147095 0 255 255
-10.549844 -4.757758 7.290947 0 255 255
-10.577782 -4.728386 7.395006 0 255 255
-10.611279 -4.688023 7.552680 0 255 255
-10.605430 -4.677014 7.640588 0 255 255
-10.602744 -4.664302 7.729901 0 255 255
-10.580835 -4.665139 7.790205 0 255 255
-10.607904 -4.646736 7.826747 0 255 255
-10.599472 -4.633430 7.937071 0 255 255
-10.630811 -4.615902 7.955222 0 255 255
-10.644110 -4.603496 7.994687 0 255 255
-10.485312 -4.875056 6.734417 0 255 255
-10.544843 -4.820807 6.902858 0 255 255
-10.563384 -4.773542 7.149468 0 255 255
-10.592786 -4.721637 7.393203 0 255 255
-10.631888 -4.689894 7.478964 0 255 255
-10.624215 -4.681381 7.556381 0 255 255
-10.623783 -4.671286 7.622217 0 255 255
-10.626685 -4.659349 7.689826 0 255 255
-10.644622 -4.644531 7.730822 0 255 255
-10.623669 -4.648973 7.765199 0 255 255
-10.695082 -4.582694 7.974946 0 255 255
-10.663855 -4.589904 8.022424 0 255 255
-10.509022 -4.860299 6.757723 0 255 255
-10.509805 -4.855475 6.786211 0 255 255
-10.531006 -4.840834 6.816294 0 255 255
-10.612284 -4.754217 7.126487 0 255 255
-10.614207 -4.713416 7.381565 0 255 255
-10.643035 -4.674021 7.547048 0 255 255
-10.657054 -4.663874 7.569907 0 255 255
-10.671089 -4.660703 7.548121 0 255 255
-10.670794 -4.639171 7.686664 0 255 255
-10.693200 -4.623410 7.720281 0 255 255
-10.674033 -4.627477 7.751717 0 255 255
-10.684419 -4.613420 7.810467 0 255 255
-10.628005 -4.774036 6.952680 0 255 255
-10.629860 -4.758808 7.044470 0 255 255
-10.648028 -4.743767 7.086185 0 255 255
-10.635488 -4.720603 7.271858 0 255 255
-10.721439 -4.628795 7.601244 0 255 255
-10.725665 -4.610178 7.707592 0 255 255
-10.723099 -4.594001 7.818704 0 255 255
-10.733335 -4.562612 7.988710 0 255 255
-10.752464 -4.547695 8.026751 0 255 255
-10.803485 -4.505387 8.144355 0 255 255
-10.677360 -4.769299 6.835070 0 255 255
-10.652381 -4.762405 6.953989 0 255 255
-10.687408 -4.679954 7.376152 0 255 255
-10.703917 -4.668385 7.400638 0 255 255
-10.716486 -4.655818 7.443333 0 255 255
-10.713227 -4.653595 7.467298 0 255 255
-10.721096 -4.642456 7.514945 0 255 255
-10.731126 -4.619153 7.633857 0 255 255
-10.756793 -4.605888 7.641743 0 255 255
-10.748808 -4.605387 7.668874 0 255 255
-10.771291 -4.598039 7.648496 0 255 255
-10.772081 -4.592273 7.682976 0 255 255
-10.780878 -4.557455 7.879216 0 255 255
-10.823179 -4.500230 8.118299 0 255 255
-10.824402 -4.483688 8.220396 0 255 255
-10.781444 -4.691471 7.020752 0 255 255
-10.703680 -4.678673 7.335584 0 255 255
-10.743043 -4.631686 7.518032 0 255 255
-10.744178 -4.637681 7.476294 0 255 255
-10.793898 -4.589005 7.638508 0 255 255
-10.791915 -4.588359 7.648583 0 255 255
-10.799754 -4.578719 7.686713 0 255 255
-10.820013 -4.565557 7.710153 0 255 255
-10.834959 -4.551373 7.756056 0 255 255
-10.835614 -4.512462 8.002840 0 255 255
-10.845885 -4.487099 8.134217 0 255 255
-10.864532 -4.474782 8.157084 0 255 255
-10.869538 -4.466299 8.196321 0 255 255
-10.797342 -4.720959 6.784592 0 255 255
-10.763347 -4.721637 6.882122 0 255 255
-10.875957 -4.659599 6.941311 0 255 255
-10.791318 -4.591134 7.632624 0 255 255
-10.818547 -4.575233 7.652690 0 255 255
-10.860108 -4.553646 7.666152 0 255 255
-10.858823 -4.546486 7.715775 0 255 255
-10.842779 -4.543867 7.780595 0 255 255
-10.872564 -4.515856 7.870430 0 255 255
-10.876289 -4.496668 7.981929 0 255 255
-10.851763 -4.498684 8.042544 0 255 255
-10.875299 -4.482872 8.073096 0 255 255
-10.861970 -4.477253 8.148960 0 255 255
-10.863211 -4.469851 8.192565 0 255 255
