ply
format ascii 1.0
element vertex 1232
property float x
property float y
property float z
property uchar red
property uchar green
property uchar blue
end_header
-0.778909 2.072400 -0.326923 255 0 255
-0.785650 2.075503 -0.326554 255 0 255
-0.770972 2.064504 -0.327037 255 0 255
-0.789840 2.084573 -0.327415 255 0 255
-0.276388 1.920810 -1.051763 255 0 255
-0.554432 1.728478 -0.580058 255 0 255
-0.555765 1.727260 -0.580532 255 0 255
-0.576727 1.744486 -0.531928 255 0 255
-0.643576 1.725584 -0.494040 255 0 255
-0.635797 1.732375 -0.493240 255 0 255
-0.639938 1.730385 -0.491920 255 0 255
-0.559139 1.907838 -0.413956 255 0 255
-0.559202 1.907772 -0.413957 255 0 255
-0.653422 1.934590 -0.365209 255 0 255
-0.721450 2.011543 -0.334138 255 0 255
-0.558153 1.727107 -0.577845 255 0 255
-0.561047 1.719819 -0.587210 255 0 255
-0.560218 1.724764 -0.579365 255 0 255
-0.563310 1.733841 -0.560828 255 0 255
-0.646022 1.723141 -0.494633 255 0 255
-0.634913 1.729264 -0.497356 255 0 255
-0.638884 1.732275 -0.490788 255 0 255
-0.642422 1.730047 -0.490221 255 0 255
-0.642720 1.738158 -0.481664 255 0 255
-0.669026 1.979146 -0.350611 255 0 255
-0.645380 1.729209 -0.488669 255 0 255
-0.914317 2.333626 -1.074968 255 0 255
-0.667105 2.003207 -0.347757 255 0 255
-0.562584 1.851100 -0.444231 255 0 255
-0.911250 2.318061 -1.088977 255 0 255
-0.907735 2.331257 -1.081264 255 0 255
-0.616613 2.105832 -1.229626 255 0 255
-0.627960 2.128165 -1.231337 255 0 255
-0.643464 2.127996 -1.229317 255 0 255
-0.663289 2.124601 -1.226289 255 0 255
-0.655481 2.134956 -1.228171 255 0 255
-0.670889 1.992319 -0.348135 255 0 255
-0.370343 1.770991 -0.596215 0 255 255
-0.821961 1.970547 -0.416290 0 255 255
-0.840633 1.974006 -0.430676 0 255 255
-0.832237 1.975266 -0.419048 0 255 255
-0.838041 1.975484 -0.425083 0 255 255
-0.621947 1.856891 -0.453628 0 255 255
-0.640640 1.869168 -0.438406 0 255 255
-0.636497 1.871097 -0.426916 0 255 255
-0.814770 1.962558 -0.423302 0 255 255
-0.835990 1.981382 -0.412229 0 255 255
-0.859852 1.989609 -0.423999 0 255 255
-0.847275 1.990310 -0.409092 0 255 255
-0.906930 1.950082 -0.556122 0 255 255
-0.846329 1.984306 -0.418430 0 255 255
-0.838592 1.986089 -0.406863 0 255 255
-0.900062 2.004549 -0.442386 0 255 255
-0.929445 2.011482 -0.462643 0 255 255
-0.116777 3.302625 -0.469927 0 255 255
-0.898270 1.951062 -0.543586 0 255 255
-0.911517 1.953341 -0.554116 0 255 255
-0.917795 1.958175 -0.550700 0 255 255
-1.035444 1.980676 -0.639251 0 255 255
-0.613460 1.856341 -0.443706 0 255 255
-0.931870 1.964400 -0.553590 0 255 255
-0.935347 2.004547 -0.480648 0 255 255
-0.128375 3.304942 -0.482921 0 255 255
-0.120435 3.307842 -0.594396 0 255 255
-0.114806 3.303480 -0.483236 0 255 255
-0.106970 3.301522 -0.469149 0 255 255
-0.109609 3.302935 -0.483928 0 255 255
-0.101263 3.300992 -0.470393 0 255 255
-0.110871 3.303107 -0.484301 0 255 255
-0.405837 1.779799 -0.512050 0 255 255
-0.423666 1.785804 -0.491662 0 255 255
-0.421423 1.785388 -0.490176 0 255 255
-0.430470 1.787818 -0.488898 0 255 255
-0.437279 1.786500 -0.520383 0 255 255
-0.430790 1.785304 -0.516167 0 255 255
-0.440315 1.791465 -0.479620 0 255 255
-0.427120 1.788082 -0.478602 0 255 255
-0.411016 1.784153 -0.476444 0 255 255
-0.420440 1.787220 -0.470774 0 255 255
-0.544555 1.841783 -0.398475 0 255 255
-0.541109 1.842281 -0.391844 0 255 255
-0.912742 1.948729 -0.566220 0 255 255
-0.120184 3.302219 -0.697905 0 255 255
-0.119981 3.307554 -0.606948 0 255 255
-0.122734 3.308073 -0.606930 0 255 255
-0.119835 3.307239 -0.542453 0 255 255
-0.120466 3.307672 -0.555798 0 255 255
-0.120278 3.304151 -0.484008 0 255 255
-0.066617 3.265412 -0.817405 0 255 255
-0.593974 1.886206 -1.183159 0 255 255
-0.631314 1.900064 -1.232786 0 255 255
-0.342837 1.769011 -0.634663 0 255 255
-0.914743 1.994467 -0.475638 0 255 255
-0.927605 1.998833 -0.482072 0 255 255
-0.053736 3.266185 -0.794760 0 255 255
-0.057102 3.268055 -0.791872 0 255 255
-0.099567 3.292815 -0.730822 0 255 255
-0.101543 3.294950 -0.719050 0 255 255
-0.107744 3.296444 -0.720623 0 255 255
-0.097975 3.297830 -0.685927 0 255 255
-0.100084 3.295748 -0.709499 0 255 255
-0.116742 3.306942 -0.606786 0 255 255
-0.113040 3.302925 -0.670220 0 255 255
-0.125883 3.308653 -0.607463 0 255 255
-0.127238 3.308212 -0.632619 0 255 255
-0.131206 3.308295 -0.528648 0 255 255
-0.128689 3.308865 -0.552991 0 255 255
-0.122029 3.308192 -0.580834 0 255 255
-0.116699 3.307173 -0.593643 0 255 255
-0.117429 3.306733 -0.618899 0 255 255
-0.118447 3.306443 -0.631933 0 255 255
-0.130365 3.306475 -0.499956 0 255 255
-0.124433 3.306626 -0.513680 0 255 255
-0.122884 3.307193 -0.529267 0 255 255
-0.128865 3.308943 -0.554924 0 255 255
-0.125688 3.308086 -0.542141 0 255 255
-0.119355 3.307483 -0.555047 0 255 255
-0.122630 3.308210 -0.567912 0 255 255
-0.122240 3.308228 -0.581457 0 255 255
-0.115593 3.305616 -0.516434 0 255 255
-0.115102 3.305559 -0.516616 0 255 255
-0.109956 3.304875 -0.516885 0 255 255
-0.116573 3.306325 -0.529633 0 255 255
-0.113018 3.306628 -0.580423 0 255 255
-0.112284 3.304476 -0.502995 0 255 255
-0.117202 3.306400 -0.529279 0 255 255
-0.118402 3.307034 -0.542686 0 255 255
-0.314209 1.784833 -0.768819 0 255 255
-0.328979 1.781591 -0.748860 0 255 255
-0.470356 1.804490 -0.449555 0 255 255
-0.465601 1.803158 -0.448823 0 255 255
-0.475060 1.807044 -0.443303 0 255 255
-0.482325 1.810495 -0.437171 0 255 255
-0.482435 1.810408 -0.437818 0 255 255
-0.474366 1.808032 -0.436672 0 255 255
-0.476109 1.806517 -0.448125 0 255 255
-0.481847 1.808023 -0.449759 0 255 255
-0.486278 1.808946 -0.452379 0 255 255
-0.481633 1.806107 -0.460436 0 255 255
-0.541542 1.830446 -0.438290 0 255 255
-0.547770 1.835915 -0.425213 0 255 255
-0.548928 1.835320 -0.429295 0 255 255
-0.545531 1.832396 -0.436143 0 255 255
-0.552360 1.840979 -0.412512 0 255 255
-0.556013 1.841515 -0.415762 0 255 255
-0.551200 1.847035 -0.389380 0 255 255
-0.559219 1.847754 -0.398016 0 255 255
-0.550506 1.844646 -0.396676 0 255 255
-0.563719 1.847836 -0.403982 0 255 255
-0.555058 1.844208 -0.404611 0 255 255
-0.551514 1.839696 -0.416092 0 255 255
-0.566128 1.851015 -0.396481 0 255 255
-0.558658 1.845333 -0.405675 0 255 255
-0.576803 1.858927 -0.385334 0 255 255
-0.576311 1.858894 -0.384784 0 255 255
-0.570917 1.853717 -0.394069 0 255 255
-0.577165 1.861344 -0.378368 0 255 255
-0.574267 1.857577 -0.386187 0 255 255
-0.583709 1.861623 -0.386157 0 255 255
-0.573882 1.856247 -0.389892 0 255 255
-0.584990 1.863365 -0.382540 0 255 255
-0.585553 1.863969 -0.381460 0 255 255
-0.589147 1.867851 -0.374668 0 255 255
-0.891840 1.947142 -0.544923 0 255 255
-0.898854 1.951021 -0.544371 0 255 255
-0.041537 3.255528 -0.819032 0 255 255
-0.093953 3.289782 -0.740447 0 255 255
-0.125223 3.304698 -0.683938 0 255 255
-0.116512 3.302645 -0.683542 0 255 255
-0.107520 3.299172 -0.696423 0 255 255
-0.128289 3.308548 -0.629152 0 255 255
-0.142140 3.310932 -0.640171 0 255 255
-0.130359 3.307600 -0.659141 0 255 255
-0.125400 3.307179 -0.647250 0 255 255
-0.130550 3.308078 -0.651111 0 255 255
-0.127127 3.307611 -0.645942 0 255 255
-0.116557 3.305459 -0.643974 0 255 255
-0.120407 3.305532 -0.657112 0 255 255
-0.133032 3.310066 -0.597911 0 255 255
-0.115337 3.306664 -0.607138 0 255 255
-0.120728 3.307335 -0.620477 0 255 255
-0.127675 3.309016 -0.567289 0 255 255
-0.128576 3.308423 -0.539981 0 255 255
-0.124744 3.306778 -0.515696 0 255 255
-0.118645 3.305155 -0.501100 0 255 255
-0.114965 3.304466 -0.497286 0 255 255
-0.008917 3.237513 -0.835572 0 255 255
-0.085150 3.283448 -0.762426 0 255 255
-0.075781 3.278376 -0.773354 0 255 255
-0.111245 3.297624 -0.718737 0 255 255
-0.108957 3.297913 -0.711188 0 255 255
-0.087247 3.293441 -0.700092 0 255 255
-0.129935 3.307036 -0.666833 0 255 255
-0.119755 3.304090 -0.675449 0 255 255
-0.027499 3.247298 -0.828616 0 255 255
-0.047859 3.257125 -0.822161 0 255 255
-0.137216 3.310776 -0.585369 0 255 255
-0.108365 3.305641 -0.593293 0 255 255
-0.105778 3.292177 -0.747476 0 255 255
-0.107857 3.294791 -0.733453 0 255 255
-0.115249 3.298297 -0.722052 0 255 255
-0.105155 3.294157 -0.732533 0 255 255
0.284347 2.983131 -0.952977 0 255 255
0.284733 2.990809 -0.944659 0 255 255
0.294272 2.989512 -0.936717 0 255 255
0.317922 2.973622 -0.930073 0 255 255
0.299368 2.991944 -0.929165 0 255 255
0.336389 2.973118 -0.912699 0 255 255
0.324532 2.996832 -0.899165 0 255 255
-0.080792 3.279066 -0.778210 0 255 255
-0.095001 3.287724 -0.755314 0 255 255
-0.080904 3.281828 -0.763936 0 255 255
-0.091249 3.289127 -0.739529 0 255 255
0.275026 3.004230 -0.939740 0 255 255
0.299139 3.004138 -0.916078 0 255 255
0.303921 3.006934 -0.908202 0 255 255
0.298481 3.004355 -0.916485 0 255 255
0.303859 3.006917 -0.908283 0 255 255
0.300472 3.008747 -0.909556 0 255 255
0.324431 2.990371 -0.906314 0 255 255
0.322937 2.997727 -0.899746 0 255 255
0.326982 3.011994 -0.879443 0 255 255
-0.084499 3.285769 -0.747856 0 255 255
-0.107592 3.293077 -0.744979 0 255 255
-0.561099 1.851012 -0.389611 0 255 255
-0.404063 1.779899 -0.505057 0 255 255
-0.404745 1.780265 -0.502349 0 255 255
-0.569431 1.852478 -0.396127 0 255 255
-0.423905 1.784651 -0.504520 0 255 255
-0.429449 1.786043 -0.504111 0 255 255
-0.432028 1.786915 -0.501651 0 255 255
-0.436179 1.788516 -0.496132 0 255 255
-0.442258 1.789838 -0.498356 0 255 255
-0.217655 1.908065 -1.072461 0 255 255
-0.222080 1.911448 -1.080569 0 255 255
-0.172125 1.894311 -1.025738 0 255 255
-0.178297 1.898436 -1.036132 0 255 255
-0.182122 1.900277 -1.041273 0 255 255
-0.197990 1.898869 -1.046479 0 255 255
-0.204507 1.899361 -1.050521 0 255 255
-0.212426 1.903665 -1.062097 0 255 255
-0.219570 1.909859 -1.076554 0 255 255
-0.152077 1.877825 -0.985647 0 255 255
-0.166275 1.888635 -1.012587 0 255 255
-0.179483 1.889809 -1.021053 0 255 255
-0.178380 1.891662 -1.023935 0 255 255
-0.197227 1.893926 -1.037112 0 255 255
-0.204990 1.897102 -1.046651 0 255 255
-0.214427 1.898122 -1.053044 0 255 255
-0.212696 1.898556 -1.053005 0 255 255
-0.220133 1.898094 -1.055725 0 255 255
-0.220640 1.898129 -1.056030 0 255 255
-0.220211 1.898044 -1.055670 0 255 255
-0.221005 1.902917 -1.064922 0 255 255
-0.229087 1.905021 -1.072627 0 255 255
-0.165961 1.864091 -0.964826 0 255 255
-0.163196 1.872433 -0.980336 0 255 255
-0.169282 1.875840 -0.989789 0 255 255
-0.166754 1.878126 -0.993048 0 255 255
-0.170077 1.882605 -1.003140 0 255 255
-0.189580 1.879624 -1.006480 0 255 255
-0.193453 1.891516 -1.030863 0 255 255
-0.193647 1.896150 -1.039461 0 255 255
-0.212601 1.891912 -1.040671 0 255 255
-0.215164 1.890558 -1.039328 0 255 255
-0.217511 1.894805 -1.048396 0 255 255
-0.217299 1.894766 -1.048223 0 255 255
-0.227148 1.895111 -1.053530 0 255 255
-0.226897 1.895152 -1.053489 0 255 255
-0.228334 1.899457 -1.062150 0 255 255
-0.239799 1.899726 -1.068117 0 255 255
-0.152319 1.856694 -0.943512 0 255 255
-0.164665 1.857867 -0.951318 0 255 255
-0.167580 1.863005 -0.963304 0 255 255
-0.179236 1.865636 -0.973853 0 255 255
-0.185306 1.869638 -0.984716 0 255 255
-0.203259 1.873258 -1.000052 0 255 255
-0.202565 1.873818 -1.000873 0 255 255
-0.201661 1.880816 -1.014351 0 255 255
-0.210594 1.880569 -1.017949 0 255 255
-0.212503 1.886042 -1.029475 0 255 255
-0.209768 1.889066 -1.033973 0 255 255
-0.217387 1.889868 -1.039060 0 255 255
-0.236286 1.890822 -1.049689 0 255 255
-0.237020 1.895384 -1.058698 0 255 255
-0.255507 1.898808 -1.073843 0 255 255
-0.316988 1.900342 -1.105343 0 255 255
-0.329770 1.904296 -1.118916 0 255 255
-0.339247 1.904799 -1.124252 0 255 255
-0.344634 1.907171 -1.131338 0 255 255
-0.356934 1.909482 -1.141486 0 255 255
-0.153521 1.849856 -0.929413 0 255 255
-0.164163 1.851558 -0.937588 0 255 255
-0.169469 1.848265 -0.932547 0 255 255
-0.180861 1.854523 -0.951052 0 255 255
-0.184066 1.856543 -0.956780 0 255 255
-0.190941 1.860642 -0.968492 0 255 255
-0.183247 1.863015 -0.970176 0 255 255
-0.199069 1.862731 -0.976414 0 255 255
-0.190596 1.863675 -0.974748 0 255 255
-0.201071 1.868349 -0.989044 0 255 255
-0.211173 1.873438 -1.003941 0 255 255
-0.217514 1.876544 -1.013059 0 255 255
-0.225153 1.881508 -1.026423 0 255 255
-0.228751 1.884652 -1.034256 0 255 255
-0.238202 1.885103 -1.039455 0 255 255
-0.248062 1.885370 -1.044462 0 255 255
-0.246585 1.890994 -1.054791 0 255 255
-0.259744 1.886300 -1.051594 0 255 255
-0.275523 1.887169 -1.060436 0 255 255
-0.328914 1.902766 -1.115545 0 255 255
-0.352421 1.904122 -1.128939 0 255 255
-0.139403 1.837979 -0.897137 0 255 255
-0.163009 1.845595 -0.923935 0 255 255
-0.175788 1.845520 -0.928955 0 255 255
-0.175061 1.850911 -0.940718 0 255 255
-0.175877 1.855840 -0.951796 0 255 255
-0.197885 1.850682 -0.949587 0 255 255
-0.213153 1.850594 -0.955550 0 255 255
-0.222778 1.858046 -0.976247 0 255 255
-0.226618 1.857738 -0.977143 0 255 255
-0.216168 1.864609 -0.987735 0 255 255
-0.229347 1.871378 -1.007696 0 255 255
-0.244263 1.879875 -1.031738 0 255 255
-0.259342 1.875753 -1.029880 0 255 255
-0.260933 1.880608 -1.040629 0 255 255
-0.269232 1.886900 -1.057070 0 255 255
-0.291096 1.884918 -1.062785 0 255 255
-0.291096 1.884918 -1.062785 0 255 255
-0.332228 1.899541 -1.110706 0 255 255
-0.345499 1.897046 -1.111655 0 255 255
-0.373612 1.899690 -1.129512 0 255 255
-0.151235 1.836137 -0.897574 0 255 255
-0.163390 1.841051 -0.913772 0 255 255
-0.171581 1.842284 -0.919872 0 255 255
-0.189525 1.840874 -0.923645 0 255 255
-0.196853 1.845054 -0.936300 0 255 255
-0.208681 1.846385 -0.944055 0 255 255
-0.219900 1.848136 -0.952549 0 255 255
-0.225118 1.852525 -0.964763 0 255 255
-0.237712 1.857558 -0.981276 0 255 255
-0.238375 1.863363 -0.994435 0 255 255
-0.243358 1.867701 -1.005939 0 255 255
-0.248366 1.872404 -1.018094 0 255 255
-0.273971 1.868661 -1.020900 0 255 255
-0.311105 1.875178 -1.050678 0 255 255
-0.325652 1.873681 -1.053361 0 255 255
-0.345310 1.878674 -1.072571 0 255 255
-0.327437 1.892956 -1.095309 0 255 255
-0.358126 1.893505 -1.109929 0 255 255
-0.370244 1.892897 -1.113903 0 255 255
-0.379755 1.893039 -1.118286 0 255 255
-0.384662 1.895383 -1.125366 0 255 255
-0.141156 1.827970 -0.874264 0 255 255
-0.162572 1.831904 -0.891880 0 255 255
-0.170700 1.832878 -0.897306 0 255 255
-0.181855 1.833106 -0.902043 0 255 255
-0.175855 1.836795 -0.908689 0 255 255
-0.182394 1.838460 -0.915169 0 255 255
-0.236598 1.852123 -0.968405 0 255 255
-0.237170 1.857606 -0.981164 0 255 255
-0.263322 1.848191 -0.969363 0 255 255
-0.251235 1.858268 -0.988357 0 255 255
-0.268119 1.857871 -0.994195 0 255 255
-0.350137 1.866535 -1.046540 0 255 255
-0.363119 1.891443 -1.107759 0 255 255
-0.380780 1.893332 -1.119349 0 255 255
-0.146667 1.820410 -0.857475 0 255 255
-0.157190 1.827828 -0.879907 0 255 255
-0.170908 1.830875 -0.892495 0 255 255
-0.234255 1.839485 -0.937150 0 255 255
-0.234255 1.839485 -0.937150 0 255 255
-0.234255 1.839485 -0.937150 0 255 255
-0.250889 1.844761 -0.956331 0 255 255
-0.282382 1.847067 -0.973633 0 255 255
-0.287669 1.845343 -0.971190 0 255 255
-0.313072 1.857052 -1.009614 0 255 255
-0.157175 1.822985 -0.867774 0 255 255
-0.170666 1.828986 -0.887738 0 255 255
-0.224369 1.832344 -0.915511 0 255 255
-0.225571 1.831585 -0.913968 0 255 255
-0.224698 1.831851 -0.914351 0 255 255
-0.221404 1.836665 -0.925422 0 255 255
-0.277343 1.832312 -0.933267 0 255 255
-0.289285 1.835472 -0.945773 0 255 255
-0.284962 1.841066 -0.959224 0 255 255
-0.167215 1.814950 -0.850120 0 255 255
-0.161437 1.818012 -0.856383 0 255 255
-0.167897 1.814403 -0.848854 0 255 255
-0.180425 1.822599 -0.874934 0 255 255
-0.194803 1.825478 -0.887412 0 255 255
-0.207587 1.830284 -0.904308 0 255 255
-0.232349 1.828610 -0.908457 0 255 255
-0.228436 1.829364 -0.909139 0 255 255
-0.300030 1.836142 -0.951084 0 255 255
-0.297455 1.836164 -0.950315 0 255 255
-0.171400 1.810875 -0.840207 0 255 255
-0.163842 1.817311 -0.855340 0 255 255
-0.170602 1.813274 -0.846631 0 255 255
-0.170907 1.819568 -0.863711 0 255 255
-0.176905 1.821714 -0.871406 0 255 255
-0.188544 1.821945 -0.875982 0 255 255
-0.181192 1.809724 -0.839935 0 255 255
-0.179690 1.813132 -0.849120 0 255 255
-0.191461 1.814347 -0.856198 0 255 255
-0.196493 1.816913 -0.864941 0 255 255
-0.191609 1.809152 -0.841361 0 255 255
-0.585054 1.892578 -1.197277 0 255 255
-0.590844 1.884840 -1.178387 0 255 255
-0.593013 1.890066 -1.193336 0 255 255
-0.600982 1.895014 -1.209134 0 255 255
-0.606851 1.896357 -1.214666 0 255 255
-0.612788 1.897276 -1.219114 0 255 255
-0.331338 1.813287 -0.888810 0 255 255
-0.600423 1.889681 -1.194748 0 255 255
-0.600853 1.893219 -1.204368 0 255 255
-0.618416 1.898248 -1.223595 0 255 255
-0.622794 1.895975 -1.219089 0 255 255
-0.604450 1.892587 -1.203900 0 255 255
-0.608090 1.896055 -1.214302 0 255 255
-0.617081 1.895961 -1.217123 0 255 255
-0.627616 1.899373 -1.229704 0 255 255
-0.314723 1.806236 -0.860560 0 255 255
-0.322087 1.808467 -0.869933 0 255 255
-0.607616 1.891275 -1.201426 0 255 255
-0.623510 1.896949 -1.221919 0 255 255
-0.631715 1.897281 -1.225564 0 255 255
-0.635926 1.901027 -1.236893 0 255 255
-0.306039 1.787550 -0.782566 0 255 255
-0.320180 1.783378 -0.760504 0 255 255
-0.325830 1.785341 -0.770290 0 255 255
-0.321089 1.780910 -0.746545 0 255 255
-0.329269 1.779445 -0.735723 0 255 255
-0.329448 1.780803 -0.744048 0 255 255
-0.329552 1.782110 -0.751778 0 255 255
-0.316961 1.775123 -0.711550 0 255 255
-0.323917 1.776173 -0.716071 0 255 255
-0.330381 1.778110 -0.726753 0 255 255
-0.335735 1.778070 -0.724521 0 255 255
-0.315547 1.772334 -0.692248 0 255 255
-0.318874 1.773543 -0.699619 0 255 255
-0.323453 1.774895 -0.707337 0 255 255
-0.336416 1.776864 -0.715746 0 255 255
-0.335206 1.778410 -0.727038 0 255 255
-0.319564 1.771092 -0.680176 0 255 255
-0.322026 1.772874 -0.693004 0 255 255
-0.323111 1.773778 -0.699323 0 255 255
-0.329890 1.775476 -0.708640 0 255 255
-0.323203 1.772829 -0.692011 0 255 255
-0.345670 1.768847 -0.627004 0 255 255
-0.349122 1.770024 -0.638661 0 255 255
-0.349435 1.770606 -0.646260 0 255 255
-0.350349 1.769567 -0.629334 0 255 255
-0.352394 1.770285 -0.636761 0 255 255
-0.352289 1.769083 -0.615937 0 255 255
-0.353944 1.769297 -0.615781 0 255 255
-0.356862 1.770051 -0.623162 0 255 255
-0.357371 1.769466 -0.608885 0 255 255
-0.363758 1.770172 -0.602895 0 255 255
-0.368782 1.770717 -0.594692 0 255 255
-0.369430 1.771338 -0.613081 0 255 255
-0.376445 1.771758 -0.578084 0 255 255
-0.374223 1.771437 -0.585408 0 255 255
-0.373695 1.771657 -0.602701 0 255 255
-0.373718 1.771352 -0.585205 0 255 255
-0.380782 1.772499 -0.576789 0 255 255
-0.382010 1.772711 -0.577049 0 255 255
-0.390414 1.774512 -0.555725 0 255 255
-0.388111 1.773829 -0.570485 0 255 255
-0.391609 1.774386 -0.578681 0 255 255
-0.396051 1.775809 -0.548810 0 255 255
-0.390058 1.774455 -0.555248 0 255 255
-0.399230 1.776730 -0.541366 0 255 255
-0.398023 1.776243 -0.547616 0 255 255
-0.397582 1.775985 -0.552747 0 255 255
-0.409347 1.779385 -0.530842 0 255 255
-0.429873 1.784734 -0.520500 0 255 255
-0.437867 1.787036 -0.515826 0 255 255
-0.434893 1.788033 -0.497648 0 255 255
-0.436110 1.788103 -0.499984 0 255 255
-0.436088 1.787430 -0.506791 0 255 255
-0.436295 1.787224 -0.509529 0 255 255
-0.446981 1.789430 -0.514147 0 255 255
-0.451170 1.794787 -0.476768 0 255 255
-0.462340 1.797230 -0.481746 0 255 255
-0.462535 1.799935 -0.463283 0 255 255
-0.460890 1.799306 -0.464270 0 255 255
-0.464363 1.799092 -0.472542 0 255 255
-0.472377 1.802004 -0.468656 0 255 255
-0.470607 1.803651 -0.455019 0 255 255
-0.480764 1.804538 -0.468383 0 255 255
-0.481328 1.809407 -0.441251 0 255 255
-0.489804 1.811343 -0.445433 0 255 255
-0.493519 1.814648 -0.434697 0 255 255
-0.490653 1.814047 -0.432953 0 255 255
-0.495203 1.816212 -0.429792 0 255 255
-0.499052 1.818135 -0.426851 0 255 255
-0.507609 1.822270 -0.421485 0 255 255
-0.545666 1.841028 -0.402781 0 255 255
-0.562297 1.849598 -0.395982 0 255 255
-0.167234 1.889897 -1.015361 0 255 255
-0.169082 1.862965 -0.963882 0 255 255
-0.154517 1.843282 -0.915276 0 255 255
-0.222612 1.864880 -0.991065 0 255 255
-0.226791 1.866704 -0.996744 0 255 255
-0.227176 1.868964 -1.001694 0 255 255
-0.220631 1.875782 -1.012910 0 255 255
-0.248718 1.895405 -1.064229 0 255 255
-0.190615 1.835263 -0.910590 0 255 255
-0.216091 1.843584 -0.940330 0 255 255
-0.304440 1.860375 -1.014286 0 255 255
-0.229433 1.843038 -0.944092 0 255 255
-0.236314 1.842783 -0.946052 0 255 255
-0.150190 1.817284 -0.850622 0 255 255
-0.152465 1.816498 -0.849336 0 255 255
-0.150914 1.820880 -0.860182 0 255 255
-0.213816 1.833410 -0.914490 0 255 255
-0.246673 1.832921 -0.924729 0 255 255
-0.257709 1.826617 -0.911262 0 255 255
-0.581941 1.887887 -1.183807 0 255 255
-0.597016 1.891082 -1.197390 0 255 255
-0.587385 1.893320 -1.200019 0 255 255
-0.596196 1.892169 -1.200010 0 255 255
-0.605627 1.890348 -1.198262 0 255 255
-0.602719 1.894212 -1.207623 0 255 255
-0.619500 1.896775 -1.220098 0 255 255
-0.623069 1.893599 -1.212794 0 255 255
-0.310174 1.773607 -0.703782 0 255 255
-0.305554 1.772069 -0.694926 0 255 255
-0.318967 1.769716 -0.668741 0 255 255
-0.326773 1.770772 -0.672348 0 255 255
-0.354684 1.768814 -0.601778 0 255 255
-0.364105 1.769786 -0.584289 0 255 255
-0.362137 1.769652 -0.592907 0 255 255
-0.369757 1.770601 -0.570180 0 255 255
-0.380554 1.772459 -0.578122 0 255 255
-0.380916 1.772741 -0.554517 0 255 255
-0.383990 1.773103 -0.568821 0 255 255
-0.388059 1.774241 -0.548686 0 255 255
-0.390577 1.775034 -0.539724 0 255 255
-0.394100 1.775663 -0.541916 0 255 255
-0.751818 1.838176 -0.939486 0 255 255
-0.766050 1.839701 -0.930515 0 255 255
-0.774860 1.840872 -0.927166 0 255 255
-0.431751 1.787056 -0.499494 0 255 255
-0.431805 1.786854 -0.501707 0 255 255
-0.439365 1.789453 -0.495001 0 255 255
-0.442156 1.791146 -0.486419 0 255 255
-0.455573 1.793405 -0.497512 0 255 255
-0.459530 1.799055 -0.463304 0 255 255
-0.462233 1.801085 -0.455308 0 255 255
-0.489039 1.813269 -0.434180 0 255 255
-0.151940 1.871596 -0.973551 0 255 255
-0.172587 1.887982 -1.014391 0 255 255
-0.179345 1.891693 -1.024456 0 255 255
-0.234098 1.908291 -1.080913 0 255 255
-0.198781 1.838565 -0.921683 0 255 255
-0.239138 1.847200 -0.957804 0 255 255
-0.230195 1.855628 -0.973866 0 255 255
-0.622450 1.899493 -1.228234 0 255 255
-0.759359 1.838267 -0.916954 0 255 255
-0.446002 1.793163 -0.478347 0 255 255
-0.470003 1.806245 -0.438887 0 255 255
-0.468991 1.805064 -0.443771 0 255 255
-0.560718 1.849421 -0.394408 0 255 255
-0.194396 1.913209 -1.069807 0 255 255
-0.150686 1.872660 -0.975054 0 255 255
-0.140540 1.830188 -0.879370 0 255 255
-0.140959 1.824481 -0.865644 0 255 255
-0.357168 1.897722 -1.118214 0 255 255
-0.374585 1.771484 -0.584201 0 255 255
-0.511797 1.822635 -0.426405 0 255 255
-0.550229 1.839491 -0.415006 0 255 255
-0.572229 1.856302 -0.387494 0 255 255
-0.280326 1.917107 -1.119168 0 255 255
-0.296876 1.907989 -1.110565 0 255 255
-0.189849 1.953667 -1.131257 0 255 255
-0.219110 1.957173 -1.152255 0 255 255
-0.203563 1.955645 -1.141592 0 255 255
-0.178151 1.938310 -1.101946 0 255 255
-0.178817 1.887927 -1.017249 0 255 255
0.254651 2.993415 -0.971250 0 255 255
0.255139 2.995238 -0.968872 0 255 255
0.269055 2.987823 -0.963021 0 255 255
0.257908 2.997329 -0.963968 0 255 255
0.239790 3.013598 -0.964081 0 255 255
0.253290 3.004276 -0.961048 0 255 255
0.258003 2.999223 -0.961864 0 255 255
0.241678 3.015923 -0.959611 0 255 255
0.247496 3.016110 -0.953645 0 255 255
0.260128 3.006266 -0.952159 0 255 255
0.264500 3.005980 -0.948172 0 255 255
0.238024 3.022171 -0.956109 0 255 255
0.248676 3.023250 -0.944270 0 255 255
0.263339 3.014468 -0.939825 0 255 255
0.341869 2.989630 -0.890012 0 255 255
0.215143 3.038290 -0.959898 0 255 255
0.239788 3.035330 -0.938758 0 255 255
0.257574 3.022003 -0.936867 0 255 255
0.370025 2.987410 -0.864770 0 255 255
0.379891 2.983061 -0.859826 0 255 255
0.402095 2.978911 -0.842539 0 255 255
0.402686 2.979250 -0.841591 0 255 255
0.425845 2.982261 -0.815475 0 255 255
0.417040 2.991391 -0.813826 0 255 255
0.432671 2.986602 -0.803815 0 255 255
0.430820 2.986617 -0.805633 0 255 255
0.458127 3.000240 -0.762215 0 255 255
0.473712 2.994710 -0.753315 0 255 255
0.461674 3.004854 -0.752896 0 255 255
0.479275 3.002741 -0.737756 0 255 255
0.395639 3.065795 -0.735712 0 255 255
0.385070 3.073215 -0.735187 0 255 255
0.401640 3.065488 -0.729799 0 255 255
0.201485 3.164634 -0.766536 0 255 255
0.204178 3.166269 -0.759544 0 255 255
0.184983 3.181896 -0.744699 0 255 255
0.187714 3.187363 -0.726919 0 255 255
0.180621 3.193569 -0.718799 0 255 255
0.162581 3.198955 -0.726622 0 255 255
0.002472 3.286536 -0.459551 0 255 255
0.006870 3.285864 -0.461074 0 255 255
0.003509 3.286175 -0.450503 0 255 255
0.007977 3.285045 -0.435060 0 255 255
-0.013814 3.288679 -0.449140 0 255 255
-0.001551 3.286896 -0.449121 0 255 255
0.003993 3.285671 -0.436558 0 255 255
0.013786 3.283719 -0.421956 0 255 255
-0.008132 3.287371 -0.436544 0 255 255
-0.746883 1.888533 -1.231749 0 255 255
-0.704428 1.888944 -1.223126 0 255 255
-0.800835 1.900682 -1.284137 0 255 255
-0.794728 1.888901 -1.242071 0 255 255
-0.785756 1.899335 -1.276230 0 255 255
-0.803880 1.893034 -1.258606 0 255 255
-0.167053 1.913034 -1.055718 0 255 255
-0.795794 1.891682 -1.252324 0 255 255
-0.343942 1.766886 -0.590976 0 255 255
-0.354836 1.768171 -0.575667 0 255 255
0.216047 3.043595 -0.952489 0 255 255
0.239018 3.033250 -0.942052 0 255 255
0.228603 3.035040 -0.950331 0 255 255
0.265043 3.024227 -0.926805 0 255 255
0.199295 3.053539 -0.956919 0 255 255
0.335448 2.999049 -0.885927 0 255 255
0.369223 2.987723 -0.865215 0 255 255
0.395228 2.976975 -0.851359 0 255 255
0.272392 3.034654 -0.906777 0 255 255
0.286493 3.027427 -0.901480 0 255 255
0.275253 3.028684 -0.911236 0 255 255
0.359205 2.998558 -0.862978 0 255 255
0.392494 2.984522 -0.845838 0 255 255
0.325569 3.016966 -0.874946 0 255 255
0.372825 2.997767 -0.850379 0 255 255
0.379674 2.993880 -0.848027 0 255 255
0.405212 2.988331 -0.829039 0 255 255
0.411887 2.982679 -0.828776 0 255 255
0.404812 2.985558 -0.832549 0 255 255
0.420105 2.980020 -0.823622 0 255 255
0.353057 3.011757 -0.853678 0 255 255
0.362921 3.008040 -0.848247 0 255 255
0.370065 3.004942 -0.844781 0 255 255
0.381012 2.999695 -0.840019 0 255 255
0.394880 2.998898 -0.827146 0 255 255
0.395167 2.998765 -0.827015 0 255 255
0.395167 2.998765 -0.827015 0 255 255
0.390920 2.994864 -0.835758 0 255 255
0.410445 2.989141 -0.822942 0 255 255
0.394519 3.005480 -0.819701 0 255 255
0.415742 2.996345 -0.809352 0 255 255
0.414801 3.002738 -0.802683 0 255 255
0.423579 3.000097 -0.797067 0 255 255
0.430670 2.992346 -0.799165 0 255 255
0.443633 2.992929 -0.785557 0 255 255
0.467958 2.999856 -0.752789 0 255 255
0.381605 3.072285 -0.740396 0 255 255
0.390392 3.073987 -0.728218 0 255 255
0.412447 3.061714 -0.724218 0 255 255
0.377404 3.079623 -0.732951 0 255 255
0.381335 3.080737 -0.726847 0 255 255
0.186623 3.183648 -0.738136 0 255 255
0.154488 3.197112 -0.742248 0 255 255
0.165514 3.191512 -0.743674 0 255 255
0.142546 3.202734 -0.741589 0 255 255
0.176191 3.193306 -0.725200 0 255 255
0.187023 3.187972 -0.726141 0 255 255
0.138065 3.208511 -0.730283 0 255 255
0.169846 3.198797 -0.717680 0 255 255
0.132275 3.214296 -0.719906 0 255 255
0.122339 3.219242 -0.717210 0 255 255
0.121817 3.225063 -0.697793 0 255 255
0.098535 3.233022 -0.701696 0 255 255
0.090809 3.238482 -0.691626 0 255 255
0.115024 3.230332 -0.688028 0 255 255
0.064197 3.258072 -0.641888 0 255 255
0.053904 3.260257 -0.647727 0 255 255
0.054221 3.261887 -0.637638 0 255 255
0.042355 3.270471 -0.602416 0 255 255
0.038966 3.272687 -0.591576 0 255 255
0.010006 3.275375 -0.633282 0 255 255
0.050673 3.271060 -0.578843 0 255 255
-0.798662 1.889832 -1.246128 0 255 255
-0.540495 1.890719 -1.176760 0 255 255
-0.357811 1.906856 -1.136776 0 255 255
-0.347744 1.907702 -1.133801 0 255 255
-0.784042 1.892546 -1.253127 0 255 255
-0.792813 1.890633 -1.248037 0 255 255
-0.341160 1.909609 -1.134421 0 255 255
-0.179714 1.856272 -0.954353 0 255 255
-0.190469 1.838055 -0.917296 0 255 255
-0.144305 1.843269 -0.911073 0 255 255
-0.165345 1.840271 -0.912750 0 255 255
-0.145693 1.839383 -0.902869 0 255 255
-0.165560 1.833736 -0.897429 0 255 255
-0.158726 1.833471 -0.894184 0 255 255
-0.137519 1.834761 -0.888972 0 255 255
-0.167020 1.827388 -0.882422 0 255 255
-0.177423 1.806072 -0.828220 0 255 255
-0.168584 1.811639 -0.841461 0 255 255
-0.173135 1.812948 -0.846538 0 255 255
0.219256 3.034547 -0.960284 0 255 255
0.207840 3.046005 -0.957771 0 255 255
0.207344 3.043886 -0.960896 0 255 255
0.205114 3.053231 -0.951408 0 255 255
0.217567 3.045962 -0.948006 0 255 255
0.229355 3.044105 -0.938422 0 255 255
0.311685 3.012105 -0.894551 0 255 255
0.324594 3.011103 -0.882870 0 255 255
0.312587 3.018103 -0.886576 0 255 255
0.362180 3.002945 -0.854974 0 255 255
0.431393 2.998607 -0.791031 0 255 255
0.426915 3.004950 -0.787831 0 255 255
0.164430 3.187866 -0.754730 0 255 255
0.174462 3.184905 -0.749970 0 255 255
0.183914 3.178035 -0.755749 0 255 255
0.195409 3.174856 -0.749580 0 255 255
0.197124 3.179911 -0.734782 0 255 255
0.152012 3.202710 -0.729381 0 255 255
0.127181 3.219773 -0.708772 0 255 255
0.089167 3.249898 -0.642702 0 255 255
0.001845 3.283114 -0.579359 0 255 255
0.018882 3.282475 -0.409777 0 255 255
0.033218 3.278627 -0.374507 0 255 255
0.033455 3.278601 -0.374540 0 255 255
-0.106472 1.930519 -1.051919 0 255 255
-0.140488 1.925587 -1.062337 0 255 255
-0.143161 1.914012 -1.045160 0 255 255
-0.145552 1.906864 -1.034492 0 255 255
-0.133423 1.896771 -1.011145 0 255 255
-0.116596 1.894135 -0.998229 0 255 255
-0.123604 1.898662 -1.009529 0 255 255
-0.211917 1.969284 -1.165782 0 255 255
-0.211492 1.970485 -1.167238 0 255 255
-0.166665 1.937060 -1.093933 0 255 255
-0.185277 1.926628 -1.087333 0 255 255
-0.162437 1.916026 -1.058332 0 255 255
-0.159043 1.907889 -1.043018 0 255 255
-0.158898 1.899305 -1.028155 0 255 255
-0.164859 1.895531 -1.024400 0 255 255
-0.153076 1.894471 -1.016764 0 255 255
-0.232193 1.957683 -1.160075 0 255 255
-0.174818 1.899467 -1.036264 0 255 255
-0.151411 1.834161 -0.893001 0 255 255
-0.139191 1.821047 -0.856419 0 255 255
-0.194357 1.871179 -0.991872 0 255 255
-0.192653 1.844299 -0.932887 0 255 255
-0.175665 1.842725 -0.922514 0 255 255
-0.156830 1.830990 -0.887498 0 255 255
-0.163383 1.812498 -0.842180 0 255 255
-0.175644 1.834939 -0.904160 0 255 255
-0.173853 1.816652 -0.856909 0 255 255
-0.178171 1.820042 -0.867428 0 255 255
-0.174792 1.808963 -0.835828 0 255 255
0.267365 2.978401 -0.974154 0 255 255
0.445638 3.007901 -0.765279 0 255 255
0.393221 3.056239 -0.752936 0 255 255
0.386640 3.065167 -0.746266 0 255 255
0.405595 3.057302 -0.738282 0 255 255
0.367773 3.085371 -0.733754 0 255 255
0.369530 3.086569 -0.729809 0 255 255
0.198540 3.175481 -0.744217 0 255 255
0.197100 3.176307 -0.743925 0 255 255
0.178881 3.188222 -0.735716 0 255 255
0.078594 3.243299 -0.690061 0 255 255
0.032909 3.278867 -0.377575 0 255 255
0.021823 3.279127 -0.364085 0 255 255
-0.009558 3.284608 -0.389982 0 255 255
0.011677 3.280726 -0.370386 0 255 255
-0.001839 3.281150 -0.360520 0 255 255
-0.002645 3.279557 -0.344976 0 255 255
-0.011833 3.279678 -0.339928 0 255 255
-0.004429 3.277848 -0.329606 0 255 255
-0.212559 1.979443 -1.180230 0 255 255
-0.198085 1.977178 -1.169040 0 255 255
-0.206985 1.964268 -1.155948 0 255 255
-0.165952 1.908547 -1.047606 0 255 255
-0.260123 1.965829 -1.187189 0 255 255
-0.197796 1.941125 -1.116684 0 255 255
-0.180549 1.939737 -1.105405 0 255 255
-0.215892 1.893687 -1.045547 0 255 255
-0.138631 1.826426 -0.869559 0 255 255
-0.337190 1.766141 -0.596461 0 255 255
-0.342739 1.766749 -0.592037 0 255 255
0.410504 3.052173 -0.740833 0 255 255
0.419756 3.049650 -0.734867 0 255 255
0.147937 3.208302 -0.717862 0 255 255
0.136082 3.214784 -0.713186 0 255 255
0.104991 3.235501 -0.682537 0 255 255
0.001954 3.284071 -0.400279 0 255 255
-0.011704 3.285795 -0.402185 0 255 255
-0.117621 1.878133 -0.970001 0 255 255
-0.169425 1.810153 -0.837565 0 255 255
-0.165378 1.824562 -0.874712 0 255 255
-0.143409 1.929941 -1.070659 0 255 255
-0.180619 1.804178 -0.823511 0 255 255
-0.185851 1.802029 -0.818412 0 255 255
-0.176532 1.922632 -1.076363 0 255 255
-0.207168 1.864680 -0.984024 0 255 255
-0.207968 1.856011 -0.965618 0 255 255
-0.190216 1.837500 -0.915865 0 255 255
-0.190740 1.837489 -0.916038 0 255 255
-0.211632 1.843009 -0.937246 0 255 255
-0.203420 1.831627 -0.906248 0 255 255
-0.200189 1.928913 -1.098728 0 255 255
-0.214515 1.955647 -1.147520 0 255 255
0.479223 2.981563 -0.763405 0 255 255
0.114829 3.224899 -0.708209 0 255 255
0.083348 3.248428 -0.659497 0 255 255
0.082574 3.246108 -0.671551 0 255 255
0.074905 3.251557 -0.658034 0 255 255
0.012877 3.276215 -0.326852 0 255 255
-0.201432 1.910967 -1.069489 0 255 255
0.382350 3.063841 -0.752868 0 255 255
0.372667 3.071150 -0.751755 0 255 255
0.032344 3.280977 -0.419484 0 255 255
0.031890 3.280468 -0.404463 0 255 255
-0.190042 1.974322 -1.160637 0 255 255
-0.192272 1.969071 -1.154619 0 255 255
-0.197653 1.956777 -1.140041 0 255 255
-0.181206 1.950433 -1.121821 0 255 255
-0.148511 1.947548 -1.099872 0 255 255
-0.195993 1.941994 -1.117062 0 255 255
-0.153455 1.934361 -1.082787 0 255 255
-0.214877 1.881312 -1.021364 0 255 255
-0.207024 1.838554 -0.924765 0 255 255
0.436258 3.003098 -0.780705 0 255 255
0.206018 3.171724 -0.744342 0 255 255
0.135188 3.219756 -0.697749 0 255 255
0.133035 3.221736 -0.693845 0 255 255
0.093245 3.241124 -0.676940 0 255 255
0.112386 3.234370 -0.676087 0 255 255
0.075840 3.249034 -0.668724 0 255 255
0.098497 3.244254 -0.654827 0 255 255
0.063876 3.256257 -0.652377 0 255 255
0.046529 3.262996 -0.645038 0 255 255
-0.006111 3.285468 -0.572253 0 255 255
-0.022795 3.288008 -0.415208 0 255 255
-0.202266 1.889364 -1.031015 0 255 255
0.074192 3.144683 -0.951833 0 255 255
0.110509 3.225481 -0.712214 0 255 255
0.122689 3.222761 -0.704718 0 255 255
0.039202 3.263118 -0.657526 0 255 255
0.035790 3.267453 -0.637316 0 255 255
0.028469 3.271268 -0.625529 0 255 255
0.007784 3.285442 -0.447230 0 255 255
0.007096 3.277992 -0.338225 0 255 255
0.124704 3.227466 -0.684868 0 255 255
0.126147 3.228332 -0.679515 0 255 255
-0.002423 3.285737 -0.418823 0 255 255
-0.000367 3.280180 -0.352414 0 255 255
-0.360891 1.769076 -0.559500 0 255 255
-0.358262 1.769152 -0.523627 0 255 255
0.216826 3.159979 -0.758934 0 255 255
0.196951 3.188465 -0.712226 0 255 255
-0.593927 1.890340 -1.194374 0 255 255
-0.133320 1.841922 -0.903557 0 255 255
0.378769 2.992186 -0.850836 0 255 255
0.387476 2.988838 -0.845992 0 255 255
0.371530 2.999119 -0.850111 0 255 255
0.379550 2.997503 -0.844009 0 255 255
0.388149 2.996118 -0.837066 0 255 255
0.381305 3.002146 -0.836863 0 255 255
0.415858 2.994118 -0.811842 0 255 255
0.410376 3.002323 -0.807614 0 255 255
0.418574 3.000842 -0.801183 0 255 255
0.407367 3.009267 -0.802192 0 255 255
0.108051 3.142352 -0.918669 0 255 255
0.115419 3.140053 -0.914671 0 255 255
0.080168 3.165289 -0.906301 0 255 255
0.095725 3.158840 -0.901424 0 255 255
0.105349 3.150738 -0.906183 0 255 255
0.095684 3.159012 -0.901133 0 255 255
0.146921 3.136576 -0.886127 0 255 255
0.153451 3.132418 -0.886401 0 255 255
0.153451 3.132418 -0.886401 0 255 255
0.153451 3.132418 -0.886401 0 255 255
0.125499 3.146342 -0.891921 0 255 255
0.056861 3.185743 -0.890026 0 255 255
0.061069 3.180269 -0.897122 0 255 255
0.020964 3.202401 -0.894239 0 255 255
0.047889 3.190041 -0.890944 0 255 255
0.057836 3.186563 -0.887037 0 255 255
0.022246 3.203798 -0.889295 0 255 255
0.034793 3.196781 -0.890966 0 255 255
0.050609 3.193486 -0.879743 0 255 255
0.054681 3.187246 -0.889229 0 255 255
0.017145 3.208484 -0.883912 0 255 255
0.025799 3.207505 -0.875748 0 255 255
0.037501 3.200001 -0.880021 0 255 255
0.044934 3.195970 -0.880701 0 255 255
0.031037 3.206146 -0.872740 0 255 255
0.046026 3.200284 -0.868983 0 255 255
-0.005557 3.231255 -0.850375 0 255 255
-0.010356 3.236631 -0.840275 0 255 255
-0.033130 3.251162 -0.822968 0 255 255
-0.026706 3.252342 -0.809587 0 255 255
-0.018895 3.244627 -0.825832 0 255 255
-0.044744 3.259305 -0.809321 0 255 255
-0.044742 3.261002 -0.802618 0 255 255
-0.034558 3.255877 -0.807666 0 255 255
-0.028452 3.250983 -0.817009 0 255 255
-0.053093 3.266087 -0.794197 0 255 255
-0.047257 3.261755 -0.803330 0 255 255
-0.021820 3.251158 -0.806962 0 255 255
-0.053985 3.269723 -0.779572 0 255 255
-0.045604 3.264984 -0.787449 0 255 255
-0.043444 3.263845 -0.788992 0 255 255
-0.027703 3.256283 -0.796123 0 255 255
-0.017251 3.251138 -0.800511 0 255 255
-0.048589 3.268380 -0.777161 0 255 255
-0.040876 3.263987 -0.784475 0 255 255
-0.031672 3.259980 -0.787264 0 255 255
-0.062705 3.277725 -0.754675 0 255 255
-0.055926 3.273067 -0.766964 0 255 255
-0.034020 3.263038 -0.778039 0 255 255
-0.029706 3.258150 -0.791720 0 255 255
-0.072429 3.280929 -0.754142 0 255 255
-0.064959 3.276694 -0.763833 0 255 255
-0.047855 3.272275 -0.757627 0 255 255
-0.042394 3.267671 -0.770620 0 255 255
-0.059385 3.280544 -0.733231 0 255 255
-0.051198 3.276934 -0.739136 0 255 255
-0.045726 3.272933 -0.750834 0 255 255
-0.040898 3.270122 -0.756755 0 255 255
-0.084063 3.290397 -0.716711 0 255 255
0.065672 3.244519 -0.704562 0 255 255
0.084250 3.239590 -0.696922 0 255 255
-0.125042 3.303432 -0.697828 0 255 255
-0.124305 3.303644 -0.693576 0 255 255
-0.118595 3.301972 -0.696370 0 255 255
-0.091960 3.294084 -0.705217 0 255 255
-0.081275 3.288378 -0.725212 0 255 255
-0.055425 3.280468 -0.726518 0 255 255
0.074785 3.242768 -0.698080 0 255 255
-0.138473 3.307585 -0.686779 0 255 255
-0.130435 3.305550 -0.688634 0 255 255
-0.120804 3.303247 -0.688507 0 255 255
-0.121996 3.303353 -0.690560 0 255 255
-0.117243 3.302840 -0.683334 0 255 255
-0.117367 3.302943 -0.682488 0 255 255
-0.098129 3.295922 -0.703668 0 255 255
-0.079825 3.288696 -0.720185 0 255 255
-0.141261 3.308531 -0.682591 0 255 255
-0.133539 3.306631 -0.684236 0 255 255
-0.127883 3.305521 -0.681497 0 255 255
-0.118405 3.303077 -0.683826 0 255 255
-0.119708 3.303236 -0.685612 0 255 255
-0.114758 3.302301 -0.682625 0 255 255
0.058521 3.258499 -0.649465 0 255 255
0.082624 3.248801 -0.658882 0 255 255
0.091157 3.247013 -0.653630 0 255 255
-0.134166 3.306691 -0.685356 0 255 255
-0.132783 3.307227 -0.673602 0 255 255
-0.125892 3.305977 -0.669056 0 255 255
0.047069 3.264005 -0.637918 0 255 255
0.065286 3.255891 -0.651917 0 255 255
-0.118522 3.306460 -0.631915 0 255 255
-0.123050 3.307692 -0.623636 0 255 255
-0.123198 3.308095 -0.610057 0 255 255
-0.125374 3.308744 -0.592361 0 255 255
-0.116595 3.306987 -0.603514 0 255 255
-0.127368 3.308728 -0.555408 0 255 255
-0.126783 3.295792 -0.403881 0 255 255
-0.117334 3.297268 -0.419186 0 255 255
-0.039247 3.259794 -0.799296 0 255 255
-0.040740 3.264513 -0.782016 0 255 255
-0.049371 3.271209 -0.765269 0 255 255
0.027706 3.273183 -0.612546 0 255 255
0.165921 3.208276 -0.693906 0 255 255
-0.609801 1.892702 -1.205992 0 255 255
-0.575510 1.893867 -1.197273 0 255 255
-0.547604 1.885935 -1.167009 0 255 255
-0.558165 1.886635 -1.172467 0 255 255
-0.258209 1.934871 -1.138297 0 255 255
-0.274937 1.930110 -1.138932 0 255 255
-0.262038 1.937138 -1.143956 0 255 255
-0.297411 1.924684 -1.140891 0 255 255
-0.242592 1.946039 -1.147952 0 255 255
-0.247858 1.940857 -1.142577 0 255 255
-0.254294 1.935615 -1.137494 0 255 255
-0.281350 1.927446 -1.137652 0 255 255
-0.284144 1.923651 -1.132523 0 255 255
-0.294851 1.924494 -1.139294 0 255 255
-0.309230 1.919408 -1.137365 0 255 255
-0.310230 1.919129 -1.137350 0 255 255
-0.210500 1.960227 -1.152050 0 255 255
-0.220808 1.955648 -1.150918 0 255 255
-0.246640 1.937306 -1.136274 0 255 255
-0.253137 1.932962 -1.132572 0 255 255
-0.262408 1.929438 -1.131466 0 255 255
-0.265451 1.927902 -1.130429 0 255 255
-0.278465 1.925878 -1.133529 0 255 255
-0.358032 1.882718 -1.086781 0 255 255
-0.200405 1.953610 -1.136887 0 255 255
-0.210409 1.954420 -1.143488 0 255 255
-0.220516 1.947929 -1.139162 0 255 255
-0.227269 1.941638 -1.133030 0 255 255
-0.234291 1.945444 -1.142650 0 255 255
-0.239898 1.940887 -1.138470 0 255 255
-0.251432 1.927970 -1.123447 0 255 255
-0.253756 1.924856 -1.119394 0 255 255
-0.264914 1.921146 -1.118637 0 255 255
-0.264911 1.921135 -1.118616 0 255 255
-0.266259 1.915598 -1.109607 0 255 255
-0.198439 1.944872 -1.122752 0 255 255
-0.198893 1.944843 -1.122950 0 255 255
-0.209138 1.946645 -1.131148 0 255 255
-0.235102 1.931884 -1.121550 0 255 255
-0.244298 1.928244 -1.120278 0 255 255
-0.245358 1.922787 -1.111666 0 255 255
-0.256184 1.919842 -1.112044 0 255 255
-0.356325 1.880946 -1.082158 0 255 255
-0.191509 1.945917 -1.120631 0 255 255
-0.208536 1.938991 -1.119048 0 255 255
-0.221809 1.929596 -1.110990 0 255 255
-0.229179 1.929975 -1.115395 0 255 255
-0.237537 1.927185 -1.115080 0 255 255
-0.251442 1.909672 -1.091829 0 255 255
-0.264575 1.910853 -1.100325 0 255 255
-0.182044 1.941392 -1.108725 0 255 255
-0.199175 1.937605 -1.111962 0 255 255
-0.208204 1.931577 -1.107158 0 255 255
-0.212272 1.921830 -1.093336 0 255 255
-0.223762 1.923916 -1.102643 0 255 255
-0.217330 1.919536 -1.092054 0 255 255
-0.191782 1.918661 -1.077650 0 255 255
-0.212900 1.915688 -1.083307 0 255 255
-0.333216 1.858472 -1.020611 0 255 255
-0.168133 1.916402 -1.061862 0 255 255
-0.167860 1.922335 -1.071409 0 255 255
-0.190745 1.906457 -1.056375 0 255 255
-0.158410 1.910058 -1.046359 0 255 255
-0.158410 1.910058 -1.046359 0 255 255
-0.168438 1.911917 -1.054548 0 255 255
-0.168097 1.905791 -1.043970 0 255 255
-0.177693 1.906329 -1.049677 0 255 255
-0.159157 1.903562 -1.035679 0 255 255
-0.177922 1.899962 -1.038660 0 255 255
-0.158150 1.898884 -1.027049 0 255 255
-0.168186 1.899070 -1.032309 0 255 255
-0.177043 1.893546 -1.026729 0 255 255
-0.185493 1.893421 -1.030566 0 255 255
-0.312190 1.847256 -0.984756 0 255 255
-0.170532 1.891095 -1.019134 0 255 255
-0.181199 1.879157 -1.001715 0 255 255
-0.240852 1.844925 -0.952975 0 255 255
-0.256898 1.830620 -0.922006 0 255 255
-0.339754 1.802279 -0.848447 0 255 255
-0.150828 1.832725 -0.889372 0 255 255
-0.166708 1.830675 -0.890440 0 255 255
-0.180854 1.823015 -0.876169 0 255 255
-0.233606 1.809882 -0.855222 0 255 255
-0.252019 1.811807 -0.865992 0 255 255
-0.343579 1.798091 -0.830955 0 255 255
-0.233380 1.806816 -0.845581 0 255 255
-0.235005 1.809117 -0.853216 0 255 255
-0.353390 1.793704 -0.810593 0 255 255
-0.306157 1.795996 -0.819704 0 255 255
-0.298949 1.794019 -0.810932 0 255 255
-0.310804 1.793382 -0.808983 0 255 255
-0.317680 1.793682 -0.810593 0 255 255
-0.296539 1.792317 -0.803612 0 255 255
-0.302240 1.792171 -0.803318 0 255 255
-0.300505 1.788763 -0.788186 0 255 255
-0.308774 1.789628 -0.792212 0 255 255
-0.325666 1.790363 -0.795480 0 255 255
-0.295080 1.789129 -0.789714 0 255 255
-0.295385 1.789080 -0.789503 0 255 255
-0.295167 1.789157 -0.789840 0 255 255
-0.295715 1.787313 -0.781526 0 255 255
-0.297838 1.787350 -0.781704 0 255 255
-0.304765 1.787177 -0.780831 0 255 255
-0.325690 1.788288 -0.785390 0 255 255
-0.301902 1.785780 -0.774242 0 255 255
-0.324763 1.786235 -0.775073 0 255 255
-0.332535 1.785473 -0.770144 0 255 255
-0.296410 1.786296 -0.776811 0 255 255
-0.298445 1.784288 -0.767143 0 255 255
-0.298507 1.784579 -0.768561 0 255 255
-0.304153 1.784135 -0.766060 0 255 255
-0.314219 1.784544 -0.767333 0 255 255
-0.324508 1.784403 -0.765451 0 255 255
-0.292887 1.784760 -0.769628 0 255 255
-0.292517 1.784713 -0.769412 0 255 255
-0.297054 1.783289 -0.762294 0 255 255
-0.297432 1.783132 -0.761487 0 255 255
-0.301382 1.782771 -0.759374 0 255 255
-0.332709 1.783721 -0.760417 0 255 255
-0.291473 1.783496 -0.763596 0 255 255
-0.291420 1.783531 -0.763766 0 255 255
-0.294359 1.781961 -0.755822 0 255 255
-0.299455 1.781749 -0.754295 0 255 255
-0.299349 1.781777 -0.754451 0 255 255
-0.299778 1.781713 -0.754075 0 255 255
-0.307219 1.780767 -0.748138 0 255 255
-0.294923 1.781899 -0.755464 0 255 255
-0.294581 1.781946 -0.755727 0 255 255
-0.292805 1.780864 -0.750352 0 255 255
-0.297415 1.780482 -0.747882 0 255 255
-0.297787 1.780465 -0.747749 0 255 255
-0.308245 1.778784 -0.736830 0 255 255
-0.309710 1.778859 -0.736971 0 255 255
-0.319034 1.780082 -0.742153 0 255 255
-0.341958 1.781438 -0.744593 0 255 255
-0.364366 1.780591 -0.729926 0 255 255
-0.293343 1.780619 -0.749035 0 255 255
-0.293383 1.780648 -0.749184 0 255 255
-0.296330 1.779268 -0.741526 0 255 255
-0.293390 1.780682 -0.749357 0 255 255
-0.296582 1.779221 -0.741240 0 255 255
-0.300705 1.779107 -0.740002 0 255 255
-0.301387 1.779104 -0.739875 0 255 255
-0.305978 1.779075 -0.738926 0 255 255
-0.305974 1.779015 -0.738590 0 255 255
-0.333251 1.778665 -0.729435 0 255 255
-0.342159 1.779962 -0.734940 0 255 255
-0.291556 1.779314 -0.742383 0 255 255
-0.292432 1.779499 -0.743263 0 255 255
-0.299201 1.777817 -0.733025 0 255 255
-0.301786 1.777580 -0.731171 0 255 255
-0.304025 1.777805 -0.732015 0 255 255
-0.304701 1.777775 -0.731703 0 255 255
-0.308157 1.777761 -0.730861 0 255 255
-0.310605 1.776501 -0.722576 0 255 255
-0.310752 1.776488 -0.722457 0 255 255
-0.310832 1.776509 -0.722565 0 255 255
-0.332456 1.778495 -0.728583 0 255 255
-0.341534 1.778474 -0.725003 0 255 255
-0.365634 1.778929 -0.716000 0 255 255
-0.372509 1.779416 -0.715534 0 255 255
-0.384324 1.779644 -0.708291 0 255 255
-0.292982 1.777844 -0.734235 0 255 255
-0.298841 1.776767 -0.727053 0 255 255
-0.304284 1.776827 -0.726192 0 255 255
-0.304909 1.776425 -0.723622 0 255 255
-0.305839 1.776478 -0.723708 0 255 255
-0.308897 1.775455 -0.716471 0 255 255
-0.309409 1.775468 -0.716399 0 255 255
-0.318653 1.776187 -0.718066 0 255 255
-0.332878 1.777176 -0.719472 0 255 255
-0.341449 1.777118 -0.715258 0 255 255
-0.348053 1.777586 -0.715461 0 255 255
-0.382063 1.779044 -0.704418 0 255 255
-0.293340 1.776685 -0.727669 0 255 255
-0.302352 1.775117 -0.716250 0 255 255
-0.303265 1.775366 -0.717544 0 255 255
-0.303659 1.775356 -0.717375 0 255 255
-0.312495 1.774538 -0.709246 0 255 255
-0.311600 1.774385 -0.708540 0 255 255
-0.326003 1.775229 -0.708608 0 255 255
-0.347138 1.776401 -0.706677 0 255 255
-0.392295 1.778780 -0.690427 0 255 255
-0.298036 1.775539 -0.719953 0 255 255
-0.302789 1.774544 -0.712515 0 255 255
-0.303680 1.774540 -0.712219 0 255 255
-0.307994 1.774477 -0.710418 0 255 255
-0.311175 1.773218 -0.700674 0 255 255
-0.312027 1.773299 -0.700890 0 255 255
-0.317657 1.774022 -0.703619 0 255 255
-0.317940 1.773950 -0.702983 0 255 255
-0.324232 1.773810 -0.699001 0 255 255
-0.326399 1.773959 -0.699029 0 255 255
-0.372096 1.777076 -0.693957 0 255 255
-0.311831 1.773893 -0.705101 0 255 255
-0.306281 1.773211 -0.702568 0 255 255
-0.306340 1.773214 -0.702565 0 255 255
-0.317941 1.772917 -0.695430 0 255 255
-0.316733 1.772619 -0.693796 0 255 255
-0.325421 1.772884 -0.691195 0 255 255
-0.338007 1.773898 -0.691734 0 255 255
-0.348568 1.775403 -0.697448 0 255 255
-0.397218 1.778075 -0.673485 0 255 255
-0.304553 1.772239 -0.696540 0 255 255
-0.304270 1.772192 -0.696329 0 255 255
-0.309265 1.772522 -0.696557 0 255 255
-0.317334 1.771619 -0.685777 0 255 255
-0.318524 1.771977 -0.687925 0 255 255
-0.321954 1.772305 -0.688576 0 255 255
-0.329225 1.772325 -0.684242 0 255 255
-0.349162 1.773996 -0.684271 0 255 255
-0.355296 1.774401 -0.682799 0 255 255
-0.358105 1.774749 -0.683669 0 255 255
-0.308130 1.771374 -0.688724 0 255 255
-0.313459 1.771639 -0.688043 0 255 255
-0.316222 1.770774 -0.679640 0 255 255
-0.322750 1.771396 -0.680664 0 255 255
-0.328783 1.771289 -0.675489 0 255 255
-0.340528 1.772639 -0.678639 0 255 255
-0.346734 1.772650 -0.673193 0 255 255
-0.356432 1.773575 -0.673044 0 255 255
-0.313972 1.770845 -0.681550 0 255 255
-0.320219 1.770451 -0.674307 0 255 255
-0.322526 1.770423 -0.672407 0 255 255
-0.320197 1.770167 -0.671842 0 255 255
-0.330502 1.771082 -0.672249 0 255 255
-0.338457 1.771347 -0.667858 0 255 255
-0.366948 1.774252 -0.668283 0 255 255
-0.403488 1.777691 -0.652230 0 255 255
-0.408056 1.778308 -0.652002 0 255 255
-0.321714 1.770657 -0.675050 0 255 255
-0.322187 1.769728 -0.666362 0 255 255
-0.321135 1.769598 -0.666006 0 255 255
-0.326827 1.770011 -0.665188 0 255 255
-0.333141 1.770066 -0.659877 0 255 255
-0.349945 1.771888 -0.661481 0 255 255
-0.365659 1.773266 -0.657367 0 255 255
-0.414095 1.778933 -0.645853 0 255 255
-0.324509 1.769160 -0.658928 0 255 255
-0.321115 1.768400 -0.654464 0 255 255
-0.326592 1.769182 -0.657186 0 255 255
-0.333086 1.769264 -0.651258 0 255 255
-0.333888 1.769431 -0.652218 0 255 255
