ply
format ascii 1.0
element vertex 1265
property float x
property float y
property float z
property uchar red
property uchar green
property uchar blue
end_header
10.167070 -9.596833 10.502125 0 255 0
10.178383 -9.592056 10.511380 0 255 0
9.430995 -9.649307 9.085948 0 255 0
10.150500 -9.579210 10.411000 0 255 0
10.160733 -9.587219 10.458220 0 255 0
10.163649 -9.591809 10.478941 0 255 0
10.176910 -9.584853 10.485521 0 255 0
10.389355 -9.575439 10.912309 0 255 0
9.459995 -9.637248 9.110265 0 255 0
9.910980 -9.595013 9.946167 0 255 0
10.093754 -9.583180 10.301585 0 255 0
10.156285 -9.583360 10.436502 0 255 0
9.925004 -9.581638 9.934159 0 255 0
9.939699 -9.575445 9.946222 0 255 0
10.101964 -9.566839 10.267746 0 255 0
10.110759 -9.565825 10.283440 0 255 0
10.138612 -9.562550 10.332968 0 255 0
10.140517 -9.560850 10.331712 0 255 0
10.177030 -9.564663 10.422168 0 255 0
10.189472 -9.561646 10.439398 0 255 0
9.826391 -9.577309 9.708651 0 255 0
9.885434 -9.569509 9.810932 0 255 0
10.129269 -9.551388 10.277732 0 255 0
10.146361 -9.550815 10.312651 0 255 0
10.157761 -9.549467 10.332897 0 255 0
10.162271 -9.552777 10.353019 0 255 0
10.172867 -9.540657 10.337592 0 255 0
10.170289 -9.552115 10.368159 0 255 0
9.821571 -9.561979 9.649999 0 255 0
9.835705 -9.565084 9.690144 0 255 0
9.837566 -9.575005 9.725396 0 255 0
10.168245 -9.534094 10.306990 0 255 0
10.183174 -9.537629 10.350206 0 255 0
10.345686 -9.521475 10.648477 0 255 0
9.843112 -9.550713 9.660785 0 255 0
9.845721 -9.556412 9.684339 0 255 0
10.173949 -9.524683 10.289595 0 255 0
10.185154 -9.523358 10.309497 0 255 0
10.201132 -9.516085 10.320913 0 255 0
10.202090 -9.526371 10.355379 0 255 0
9.838394 -9.542371 9.624364 0 255 0
9.849514 -9.540489 9.642328 0 255 0
9.867193 -9.540030 9.678867 0 255 0
10.190560 -9.513144 10.288931 0 255 0
10.200807 -9.512813 10.309900 0 255 0
10.219357 -9.509648 10.339788 0 255 0
9.859628 -9.527598 9.623451 0 255 0
9.919312 -9.525642 9.745521 0 255 0
9.901775 -9.505446 9.644215 0 255 0
9.905498 -9.510815 9.669121 0 255 0
9.919957 -9.514115 9.710593 0 255 0
10.308243 -9.464670 10.389065 0 255 0
10.328574 -9.454941 10.402096 0 255 0
10.335506 -9.441620 10.375020 0 255 0
10.375370 -9.409114 10.358266 0 255 0
10.386491 -9.408051 10.378807 0 255 0
10.379293 -9.388251 10.300964 0 255 0
10.396011 -9.397790 10.366940 0 255 0
10.392567 -9.407870 10.391291 0 255 0
10.403618 -9.377934 10.320724 0 255 0
9.880315 -9.436181 9.379888 0 255 0
10.420005 -9.353866 10.280107 0 255 0
10.428971 -9.344136 10.268721 0 255 0
10.444830 -9.338676 10.285591 0 255 0
10.457567 -9.328933 10.282265 0 255 0
10.242031 -9.344670 9.868752 0 255 0
10.261327 -9.336285 9.883792 0 255 0
10.474690 -9.316609 10.280227 0 255 0
10.489580 -9.302441 10.267580 0 255 0
9.096088 -10.552808 11.212824 0 255 0
9.111767 -10.546458 11.226501 0 255 0
9.096050 -10.562225 11.242404 0 255 0
9.147119 -10.512283 11.194789 0 255 0
9.116765 -10.481570 11.032813 0 255 0
9.164591 -10.429640 10.971962 0 255 0
9.180882 -10.405548 10.931069 0 255 0
9.184949 -10.414571 10.968232 0 255 0
9.189821 -10.405848 10.951217 0 255 0
9.242655 -10.395103 11.030883 0 255 0
9.463547 -10.413101 11.562182 0 255 0
9.699315 -9.881656 10.394445 0 255 0
9.674339 -9.862470 10.280340 0 255 0
9.942242 -9.792748 10.636285 0 255 0
9.875565 -9.781190 10.456617 0 255 0
9.960513 -9.780452 10.636807 0 255 0
10.004564 -9.754676 10.650244 0 255 0
10.006814 -9.751369 10.644660 0 255 0
10.026721 -9.718654 10.584360 0 255 0
9.843467 -9.697394 10.123658 0 255 0
10.238708 -9.658315 10.849733 0 255 0
9.853802 -9.676802 10.080991 0 255 0
10.244039 -9.647016 10.825585 0 255 0
10.029922 -9.638347 10.338236 0 255 0
9.857093 -9.628441 9.935699 0 255 0
9.873340 -9.617962 9.937593 0 255 0
9.877875 -9.617393 9.945547 0 255 0
9.871543 -9.622694 9.948642 0 255 0
9.871543 -9.622694 9.948642 0 255 0
9.871543 -9.622694 9.948642 0 255 0
9.898315 -9.603216 9.944804 0 255 0
9.898747 -9.603299 9.945991 0 255 0
9.896974 -9.604295 9.945313 0 255 0
10.108086 -9.567445 10.282804 0 255 0
10.120885 -9.544819 10.239020 0 255 0
10.148603 -9.536559 10.272558 0 255 0
10.350162 -9.506357 10.610461 0 255 0
9.866154 -9.507791 9.575067 0 255 0
9.934004 -9.490870 9.667538 0 255 0
10.305069 -9.473663 10.410579 0 255 0
8.587787 -10.732963 10.688278 0 255 0
9.117835 -10.531649 11.192884 0 255 0
9.150798 -10.432392 10.951006 0 255 0
9.225488 -10.452588 11.175106 0 255 0
9.271880 -10.409391 11.138689 0 255 0
9.221324 -10.371757 10.911502 0 255 0
9.929624 -9.793270 10.610823 0 255 0
10.016201 -9.716714 10.555653 0 255 0
10.039743 -9.695824 10.540420 0 255 0
10.038509 -9.699805 10.550312 0 255 0
10.021219 -9.689719 10.481389 0 255 0
10.204220 -9.675292 10.829120 0 255 0
10.204825 -9.675270 10.830354 0 255 0
10.229986 -9.660635 10.838305 0 255 0
10.227813 -9.669914 10.862868 0 255 0
10.218591 -9.672235 10.850367 0 255 0
10.231098 -9.670890 10.873003 0 255 0
10.271544 -9.639984 10.862534 0 255 0
9.852784 -9.632390 9.938884 0 255 0
9.874535 -9.626160 9.965991 0 255 0
9.909014 -9.544297 9.782165 0 255 0
10.323113 -9.506112 10.551574 0 255 0
10.371540 -9.505620 10.654073 0 255 0
10.387115 -9.481255 10.610773 0 255 0
10.377558 -9.493365 10.628391 0 255 0
10.387354 -9.488616 10.634482 0 255 0
10.406353 -9.467447 10.608612 0 255 0
10.412986 -9.455549 10.585379 0 255 0
8.567582 -10.747402 10.690361 0 255 0
8.596274 -10.730877 10.699942 0 255 0
8.639441 -10.696388 10.684037 0 255 0
9.139986 -10.514113 11.185229 0 255 0
9.345002 -10.324100 11.027089 0 255 0
9.899299 -9.802863 10.575893 0 255 0
9.908689 -9.802674 10.595471 0 255 0
9.910494 -9.806662 10.611910 0 255 0
9.916462 -9.791022 10.575464 0 255 0
9.931808 -9.785088 10.589739 0 255 0
9.958537 -9.766699 10.589231 0 255 0
9.955501 -9.734325 10.480720 0 255 0
9.994215 -9.720970 10.521821 0 255 0
10.202856 -9.683126 10.850872 0 255 0
10.230057 -9.652371 10.812427 0 255 0
10.247776 -9.646849 10.833095 0 255 0
10.251403 -9.657014 10.872914 0 255 0
10.280623 -9.639651 10.880994 0 255 0
10.291270 -9.625751 10.860073 0 255 0
9.956998 -9.558332 9.929476 0 255 0
9.974520 -9.553271 9.951178 0 255 0
9.982751 -9.544105 9.939981 0 255 0
9.970976 -9.556078 9.952410 0 255 0
10.349285 -9.591424 10.876576 0 255 0
9.987529 -9.761497 10.635135 0 255 0
10.272216 -9.643023 10.873548 0 255 0
10.185149 -9.714528 10.911757 0 255 0
10.146306 -9.731152 10.880672 0 255 0
10.148167 -9.720292 10.850457 0 255 0
10.187618 -9.705483 10.888566 0 255 0
10.187498 -9.709203 10.900024 0 255 0
10.171537 -9.703015 10.846243 0 255 0
10.192127 -9.697042 10.871658 0 255 0
9.380342 -9.570989 8.730380 0 255 0
9.374449 -9.572729 8.723202 0 255 0
9.363153 -9.578460 8.716981 0 255 0
9.328683 -9.596379 8.699381 0 255 0
9.382700 -9.571412 8.736781 0 255 0
9.350962 -9.585650 8.713448 0 255 0
9.204321 -9.615119 8.491221 0 255 0
9.219454 -9.626120 8.558389 0 255 0
9.223572 -9.608172 8.510695 0 255 0
9.284391 -9.592713 8.592668 0 255 0
9.359856 -9.576083 8.702416 0 255 0
9.357059 -9.574512 8.691456 0 255 0
9.382934 -9.565186 8.717668 0 255 0
9.411735 -9.550271 8.732561 0 255 0
9.368559 -9.570927 8.704868 0 255 0
9.397361 -9.556115 8.720089 0 255 0
9.338159 -9.576244 8.656304 0 255 0
9.302940 -10.432286 11.277552 0 255 0
9.294020 -10.437686 11.275394 0 255 0
9.288568 -10.448663 11.298268 0 255 0
9.289886 -10.417169 11.201876 0 255 0
9.304547 -10.419038 11.239267 0 255 0
9.299975 -10.424379 11.246271 0 255 0
9.300865 -10.423144 11.244294 0 255 0
9.300458 -10.424680 11.248254 0 255 0
9.291948 -10.432233 11.253774 0 255 0
9.298403 -10.433479 11.271561 0 255 0
9.303563 -10.407120 11.199602 0 255 0
9.334976 -10.386025 11.200644 0 255 0
9.300467 -10.416357 11.222061 0 255 0
9.305669 -10.409738 11.212380 0 255 0
9.305359 -10.410255 11.213343 0 255 0
9.344892 -10.366232 11.159585 0 255 0
9.325644 -10.370555 11.131854 0 255 0
9.316618 -10.366828 11.100721 0 255 0
9.322809 -10.372781 11.132774 0 255 0
9.316833 -10.383097 11.152432 0 255 0
9.311295 -10.384971 11.146439 0 255 0
9.322650 -10.378051 11.149035 0 255 0
9.315520 -10.391398 11.175772 0 255 0
9.325317 -10.336883 11.025071 0 255 0
9.350756 -10.346402 11.109715 0 255 0
9.335488 -10.363099 11.129515 0 255 0
9.334627 -10.361624 11.123015 0 255 0
9.361449 -10.321099 11.052976 0 255 0
9.350780 -10.335869 11.076585 0 255 0
9.342335 -10.346257 11.091164 0 255 0
9.334207 -10.352831 11.094412 0 255 0
9.417148 -10.283872 11.055359 0 255 0
9.384025 -10.296758 11.024789 0 255 0
9.346802 -10.335857 11.067998 0 255 0
9.348868 -10.326082 11.041646 0 255 0
9.411285 -10.264712 10.982404 0 255 0
9.414094 -10.270648 11.007138 0 255 0
9.389045 -10.278679 10.978618 0 255 0
9.365547 -10.301979 11.001539 0 255 0
9.361220 -10.314857 11.032819 0 255 0
9.391728 -10.256937 10.915892 0 255 0
9.400868 -10.251228 10.917542 0 255 0
9.383943 -10.269197 10.937779 0 255 0
9.357724 -10.291205 10.950791 0 255 0
9.349842 -10.308115 10.987131 0 255 0
9.390759 -10.247148 10.882967 0 255 0
9.395676 -10.252543 10.910532 0 255 0
9.397964 -10.259486 10.937321 0 255 0
9.392959 -10.240044 10.865309 0 255 0
9.379523 -10.256755 10.889094 0 255 0
9.355125 -10.280165 10.910427 0 255 0
9.447334 -10.196426 10.844723 0 255 0
9.417990 -10.218208 10.850297 0 255 0
9.852948 -9.941232 10.912229 0 255 0
9.659058 -10.054053 10.851084 0 255 0
9.885816 -9.916407 10.904632 0 255 0
9.858667 -9.934848 10.904402 0 255 0
10.072067 -9.794788 10.921650 0 255 0
10.018423 -9.823947 10.898260 0 255 0
9.992153 -9.841896 10.898361 0 255 0
9.995040 -9.845567 10.916131 0 255 0
9.968745 -9.863565 10.916339 0 255 0
9.908442 -9.894981 10.885748 0 255 0
9.882060 -9.913144 10.886284 0 255 0
10.041856 -9.802320 10.880466 0 255 0
10.014239 -9.820690 10.879008 0 255 0
9.965932 -9.859838 10.898548 0 255 0
9.987218 -9.839027 10.878721 0 255 0
10.098652 -9.765504 10.886510 0 255 0
10.036808 -9.799437 10.860537 0 255 0
10.010907 -9.817301 10.861173 0 255 0
9.984366 -9.835384 10.861116 0 255 0
9.959293 -9.857650 10.877394 0 255 0
10.055284 -9.780991 10.842126 0 255 0
10.034175 -9.795754 10.843281 0 255 0
10.028302 -9.801551 10.848925 0 255 0
10.096678 -9.746080 10.821077 0 255 0
10.091358 -9.742126 10.797193 0 255 0
9.288363 -10.450944 11.305015 0 255 0
9.308093 -10.416798 11.239829 0 255 0
9.314861 -10.393467 11.180866 0 255 0
9.307006 -10.401628 11.189703 0 255 0
9.302167 -10.400982 11.177266 0 255 0
9.315605 -10.400719 11.205313 0 255 0
9.853116 -9.827719 10.554974 0 255 0
9.844889 -9.820383 10.514182 0 255 0
9.537231 -10.356973 11.543670 0 255 0
9.347411 -10.426227 11.354012 0 255 0
9.506419 -10.345680 11.441885 0 255 0
9.506419 -10.345680 11.441885 0 255 0
9.450971 -10.381510 11.435637 0 255 0
9.262139 -10.457262 11.268575 0 255 0
9.432822 -10.380619 11.393835 0 255 0
9.310485 -10.211602 10.598508 0 255 0
9.896291 -9.812778 10.600666 0 255 0
9.857110 -9.833360 10.581322 0 255 0
9.882831 -9.805923 10.550146 0 255 0
9.309959 -10.439351 11.314888 0 255 0
9.318943 -10.439471 11.334574 0 255 0
9.344202 -10.429787 11.358335 0 255 0
9.328042 -10.430733 11.326588 0 255 0
9.288133 -10.459652 11.331951 0 255 0
9.317644 -10.355465 11.067123 0 255 0
9.902320 -9.808178 10.599125 0 255 0
10.474159 -9.348143 10.378428 0 255 0
8.132932 -10.517131 9.031036 0 255 0
9.375719 -9.566712 8.706972 0 255 0
8.166249 -10.399590 8.732316 0 255 0
7.955870 -10.024124 8.716330 255 255 0
7.970825 -10.029776 8.718699 255 255 0
7.929544 -10.009274 8.711873 255 255 0
7.928920 -9.991900 8.710780 255 255 0
7.935556 -9.988212 8.711473 255 255 0
7.861087 -9.926080 8.697700 255 255 0
8.215533 -9.949077 8.747440 255 255 0
7.369267 -9.689772 8.616827 255 255 0
7.447261 -9.692578 8.627642 255 255 0
7.364715 -9.668940 8.614998 255 255 0
7.414460 -9.665798 8.621609 255 255 0
7.300941 -9.652374 8.605327 255 255 0
7.301764 -9.653458 8.605502 255 255 0
7.311808 -9.655197 8.606975 255 255 0
7.314359 -9.655247 8.607327 255 255 0
7.408006 -9.667771 8.620842 255 255 0
7.479144 -9.576718 8.625277 255 255 0
7.199169 -9.400499 8.576820 255 255 0
7.204521 -9.364346 8.575455 255 255 0
7.203118 -9.364658 8.575282 255 255 0
7.350686 -9.251456 8.588869 255 255 0
7.264268 -9.155562 8.571506 255 255 0
7.448698 -9.155648 8.596698 255 255 0
7.489764 -9.166682 8.602947 255 255 0
7.258705 -9.019285 8.562842 255 255 0
7.027477 -9.000793 8.530191 255 255 0
7.051680 -9.010413 8.534055 255 255 0
7.280846 -9.005904 8.565090 255 255 0
7.033837 -8.973728 8.529491 255 255 0
7.046021 -8.984798 8.531796 255 255 0
7.065732 -8.993615 8.535000 255 255 0
7.047122 -8.961701 8.530607 255 255 0
7.058917 -8.974266 8.532948 255 255 0
7.065616 -8.947773 8.532325 255 255 0
7.325304 -8.921084 8.566243 255 255 0
7.116932 -8.818719 8.531849 255 255 0
7.146494 -8.775146 8.533360 255 255 0
7.157637 -8.754188 8.533666 255 255 0
7.167664 -8.726830 8.533449 255 255 0
7.171285 -8.750677 8.535326 255 255 0
7.202672 -8.733646 8.538625 255 255 0
7.137433 -8.704152 8.528005 255 255 0
7.153131 -8.707421 8.530338 255 255 0
7.122344 -8.683640 8.524754 255 255 0
7.156736 -8.678385 8.529145 255 255 0
7.086874 -8.153338 8.489155 255 255 0
7.145338 -10.700939 8.644888 255 255 0
7.175861 -10.701179 8.649071 255 255 0
8.214437 -9.949112 8.747292 255 255 0
8.237735 -9.948461 8.750436 255 255 0
8.149668 -9.923092 8.736938 255 255 0
7.393006 -9.680151 8.619511 255 255 0
7.419457 -9.678394 8.623021 255 255 0
7.443884 -9.677835 8.626326 255 255 0
7.339527 -9.643259 8.610068 255 255 0
7.391201 -9.678623 8.619176 255 255 0
7.391208 -9.678667 8.619179 255 255 0
7.205389 -9.358299 8.575222 255 255 0
7.309902 -9.151148 8.577481 255 255 0
6.955275 -8.150637 8.471026 255 255 0
7.033923 -8.159796 8.482298 255 255 0
7.087792 -8.152858 8.489253 255 255 0
7.005673 -8.146443 8.477666 255 255 0
7.036565 -8.151868 8.482199 255 255 0
7.060360 -8.151059 8.485402 255 255 0
7.037849 -8.147581 8.482126 255 255 0
7.380066 -9.837807 8.626886 255 255 0
7.377337 -9.829076 8.626007 255 255 0
7.351269 -9.784220 8.619846 255 255 0
7.372190 -9.780184 8.622469 255 255 0
8.090452 -9.835595 8.723777 255 255 0
7.471567 -9.676115 8.630006 255 255 0
7.351366 -9.667918 8.613115 255 255 0
7.351307 -9.667890 8.613105 255 255 0
7.351344 -9.667944 8.613113 255 255 0
7.402884 -9.694798 8.621709 255 255 0
7.136977 -9.064219 8.548824 255 255 0
7.131729 -9.003320 8.544576 255 255 0
9.157119 -8.928461 8.816841 255 255 0
9.060557 -8.902088 8.802124 255 255 0
8.984561 -8.833986 8.787795 255 255 0
8.980947 -8.805782 8.785666 255 255 0
7.121873 -10.737764 8.643819 255 255 0
7.165847 -10.732105 8.649496 255 255 0
7.160448 -10.713942 8.647706 255 255 0
7.145120 -10.725363 8.646275 255 255 0
7.185229 -10.721217 8.651512 255 255 0
7.178416 -10.685812 8.648528 255 255 0
7.168283 -10.685653 8.647135 255 255 0
7.139833 -9.919250 8.598802 255 255 0
7.150813 -9.885844 8.598364 255 255 0
7.160223 -9.873042 8.598907 255 255 0
7.556387 -9.920106 8.655741 255 255 0
7.410779 -9.686365 8.622298 255 255 0
7.406569 -9.650750 8.619658 255 255 0
7.181645 -9.001730 8.551300 255 255 0
7.154231 -8.953990 8.544788 255 255 0
7.280721 -8.954569 8.562096 255 255 0
7.344142 -8.881584 8.566525 255 255 0
7.267476 -8.738239 8.547742 255 255 0
7.278567 -8.721700 8.548297 255 255 0
9.201737 -9.010681 8.827703 255 255 0
9.223715 -9.000382 8.830107 255 255 0
8.897944 -8.812295 8.774708 255 255 0
8.919123 -8.803551 8.777093 255 255 0
8.923540 -8.801669 8.777588 255 255 0
8.982778 -8.819633 8.786719 255 255 0
8.912847 -8.793243 8.775639 255 255 0
8.934742 -8.778955 8.777801 255 255 0
9.017254 -8.791217 8.789780 255 255 0
8.758340 -8.618453 8.744400 255 255 0
7.083052 -8.155318 8.488748 255 255 0
7.084095 -8.140166 8.488011 255 255 0
7.177630 -10.727578 8.650844 255 255 0
7.170631 -10.708518 8.648782 255 255 0
7.194414 -10.698931 8.651473 255 255 0
7.190848 -10.664989 8.649018 255 255 0
7.199995 -10.685791 8.651474 255 255 0
7.200527 -10.645953 8.649236 255 255 0
7.201907 -10.625633 8.648247 255 255 0
7.167326 -10.612248 8.642747 255 255 0
7.200336 -10.597343 8.646391 255 255 0
7.240664 -10.617590 8.653072 255 255 0
7.266926 -10.619464 8.656768 255 255 0
7.175689 -10.576727 8.641829 255 255 0
7.194642 -10.571308 8.644104 255 255 0
7.188854 -10.589945 8.644394 255 255 0
7.147166 -10.278305 8.620627 255 255 0
7.156637 -10.273057 8.621616 255 255 0
7.144161 -10.248161 8.618468 255 255 0
7.132843 -10.217462 8.615142 255 255 0
7.153572 -10.228961 8.618640 255 255 0
7.167911 -10.208911 8.619435 255 255 0
7.144804 -10.196041 8.615533 255 255 0
7.154308 -10.202197 8.617188 255 255 0
7.188391 -10.191273 8.621209 255 255 0
7.166666 -10.194841 8.618449 255 255 0
7.168594 -10.181471 8.617937 255 255 0
7.177735 -10.172133 8.618645 255 255 0
7.202237 -10.170470 8.621894 255 255 0
7.210413 -10.163686 8.622618 255 255 0
7.169392 -10.162191 8.616929 255 255 0
7.217192 -10.150152 8.622759 255 255 0
7.216135 -10.126236 8.621227 255 255 0
7.181046 -10.106735 8.615303 255 255 0
7.175508 -10.120461 8.615344 255 255 0
7.207753 -10.116842 8.619537 255 255 0
7.227233 -10.115043 8.622093 255 255 0
7.231452 -10.107555 8.622235 255 255 0
7.229949 -10.104807 8.621871 255 255 0
7.238288 -10.103753 8.622949 255 255 0
7.248362 -10.090199 8.623538 255 255 0
7.298860 -10.087407 8.630272 255 255 0
7.161188 -9.862161 8.598408 255 255 0
6.944344 -9.547897 8.550568 255 255 0
6.945352 -9.533908 8.549894 255 255 0
6.973037 -9.509883 8.552281 255 255 0
6.995421 -9.518831 8.555857 255 255 0
6.996545 -9.518052 8.555966 255 255 0
6.995964 -9.494558 8.554524 255 255 0
9.261491 -9.072177 8.839430 255 255 0
9.262549 -9.072397 8.839587 255 255 0
9.262940 -9.072593 8.839651 255 255 0
9.297783 -9.080728 8.844881 255 255 0
7.208874 -10.679460 8.652320 255 255 0
7.215352 -10.683741 8.653453 255 255 0
7.168915 -10.639504 8.644545 255 255 0
7.191926 -10.639464 8.647686 255 255 0
7.198896 -10.658904 8.649764 255 255 0
7.208101 -10.652347 8.650641 255 255 0
7.175327 -10.622758 8.644449 255 255 0
7.213161 -10.621549 8.649546 255 255 0
7.191069 -10.617769 8.646310 255 255 0
7.252182 -10.603909 8.653852 255 255 0
7.152305 -10.268666 8.620770 255 255 0
7.145386 -10.252946 8.618913 255 255 0
7.134436 -10.205278 8.614654 255 255 0
7.165157 -10.166396 8.616594 255 255 0
7.164365 -10.191532 8.617944 255 255 0
7.178528 -10.152236 8.617599 255 255 0
7.189690 -10.136639 8.618218 255 255 0
7.219566 -10.116490 8.621130 255 255 0
7.188341 -10.098954 8.615849 255 255 0
7.178246 -10.081674 8.613467 255 255 0
7.197313 -10.086500 8.616351 255 255 0
7.248362 -10.090199 8.623538 255 255 0
7.248362 -10.090199 8.623538 255 255 0
7.241021 -10.093616 8.622733 255 255 0
7.210264 -10.055695 8.616334 255 255 0
7.251034 -10.079958 8.623309 255 255 0
7.244468 -10.059933 8.621251 255 255 0
7.193591 -10.021599 8.612079 255 255 0
7.202035 -10.033431 8.613919 255 255 0
7.247159 -10.049565 8.621017 255 255 0
7.218725 -9.998748 8.614186 255 255 0
7.230352 -10.024696 8.617280 255 255 0
7.234055 -10.011438 8.617016 255 255 0
7.196352 -9.998960 8.611143 255 255 0
7.203494 -9.985316 8.611327 255 255 0
7.215772 -9.984517 8.612958 255 255 0
7.240583 -9.978551 8.616001 255 255 0
7.206533 -9.974761 8.611131 255 255 0
7.199848 -9.963820 8.609583 255 255 0
7.225352 -9.958211 8.612741 255 255 0
7.224499 -9.945076 8.611862 255 255 0
7.249441 -9.939147 8.614924 255 255 0
7.247861 -9.919581 8.613575 255 255 0
7.247832 -9.919572 8.613570 255 255 0
7.249441 -9.939147 8.614924 255 255 0
7.247832 -9.919572 8.613570 255 255 0
7.247832 -9.919572 8.613570 255 255 0
7.247832 -9.919572 8.613570 255 255 0
7.249441 -9.939147 8.614924 255 255 0
7.247832 -9.919572 8.613570 255 255 0
7.185985 -9.843336 8.600702 255 255 0
7.231350 -9.860641 8.607902 255 255 0
7.192912 -9.834395 8.601130 255 255 0
7.201625 -9.811040 8.600965 255 255 0
7.224443 -9.818051 8.604487 255 255 0
7.219070 -9.835536 8.604769 255 255 0
7.399304 -9.697090 8.621354 255 255 0
6.966108 -9.516771 8.551735 255 255 0
9.028925 -8.905248 8.797987 255 255 0
9.001231 -8.862288 8.791714 255 255 0
7.219170 -10.565331 8.647106 255 255 0
7.230536 -10.563657 8.648561 255 255 0
7.180799 -10.159752 8.618345 255 255 0
7.179858 -10.143296 8.617261 255 255 0
7.224133 -10.120619 8.621993 255 255 0
7.234172 -10.097319 8.622012 255 255 0
7.232644 -10.094577 8.621645 255 255 0
7.194466 -10.040523 8.613296 255 255 0
7.211176 -10.025778 8.614723 255 255 0
7.199190 -10.014171 8.612413 255 255 0
7.252382 -9.996005 8.618624 255 255 0
7.240420 -9.958598 8.614820 255 255 0
7.219645 -9.950934 8.611540 255 255 0
7.233804 -9.918480 8.611590 255 255 0
7.232141 -9.898843 8.610225 255 255 0
7.241386 -9.897191 8.611392 255 255 0
7.256890 -9.892632 8.613244 255 255 0
7.232724 -9.874008 8.608865 255 255 0
7.081124 -10.744710 8.638657 255 255 0
7.353763 -10.658929 8.670916 255 255 0
7.336407 -10.583815 8.664189 255 255 0
7.326624 -10.494474 8.657673 255 255 0
7.308956 -10.469298 8.653799 255 255 0
7.324301 -10.451983 8.654891 255 255 0
7.305995 -10.444778 8.651973 255 255 0
7.311692 -10.447478 8.652907 255 255 0
7.237563 -10.197053 8.628260 255 255 0
7.324530 -10.211312 8.640964 255 255 0
7.321067 -10.195151 8.639554 255 255 0
7.335869 -10.169085 8.640064 255 255 0
7.351863 -10.192279 8.643594 255 255 0
7.401934 -10.212505 8.651604 255 255 0
7.337924 -10.136082 8.638431 255 255 0
7.389312 -10.182517 8.648142 255 255 0
7.328390 -10.118423 8.636104 255 255 0
7.419402 -10.167905 8.651403 255 255 0
7.393718 -10.138701 8.646202 255 255 0
7.372168 -10.127685 8.642620 255 255 0
7.393718 -10.138701 8.646202 255 255 0
7.195760 -10.063854 8.614825 255 255 0
7.377106 -10.107144 8.642103 255 255 0
7.409955 -10.108532 8.646669 255 255 0
7.210202 -10.039025 8.615358 255 255 0
7.210339 -10.039124 8.615383 255 255 0
7.393783 -10.058738 8.641574 255 255 0
7.323267 -9.995782 8.628292 255 255 0
7.352097 -10.012953 8.633224 255 255 0
7.375009 -10.009202 8.636137 255 255 0
7.355018 -9.977000 8.631539 255 255 0
7.355319 -9.959873 8.630588 255 255 0
7.375298 -9.946689 8.632551 255 255 0
7.356840 -9.912511 8.628048 255 255 0
7.346672 -9.890556 8.625386 255 255 0
7.346672 -9.890556 8.625386 255 255 0
7.279974 -9.843831 8.613566 255 255 0
7.368279 -9.877424 8.627575 255 255 0
7.263577 -9.797526 8.608643 255 255 0
7.321610 -9.837129 8.618865 255 255 0
7.375835 -9.854405 8.627272 255 255 0
7.287647 -9.787984 8.611377 255 255 0
7.285425 -10.643445 8.660685 255 255 0
7.311275 -10.530283 8.657653 255 255 0
7.226651 -10.456675 8.641828 255 255 0
7.239818 -10.367458 8.638451 255 255 0
7.229698 -10.345094 8.635772 255 255 0
7.157030 -10.189100 8.616800 255 255 0
7.139205 -10.179287 8.613797 255 255 0
7.181702 -10.197875 8.620679 255 255 0
7.421707 -10.206292 8.653945 255 255 0
7.363788 -10.059703 8.637532 255 255 0
7.331545 -10.023364 8.631022 255 255 0
7.206774 -9.909880 8.607400 255 255 0
7.295649 -9.921977 8.620239 255 255 0
7.263031 -9.861423 8.612273 255 255 0
7.194958 -9.387271 8.575478 255 255 0
7.011416 -7.810021 8.458940 255 255 0
6.956326 -8.655654 8.500458 255 255 0
6.931535 -8.639022 8.496108 255 255 0
6.959436 -8.619141 8.498765 255 255 0
7.001747 -8.497086 8.497465 255 255 0
9.535663 -7.915067 8.809766 255 255 0
7.378335 -9.994718 8.635751 255 255 0
7.360864 -10.006792 8.634065 255 255 0
7.338841 -9.975302 8.629231 255 255 0
7.368707 -9.986015 8.633932 255 255 0
7.367574 -9.973775 8.633066 255 255 0
7.391304 -9.975309 8.636395 255 255 0
6.994127 -8.463010 8.494448 255 255 0
6.980197 -8.433475 8.490832 255 255 0
7.834484 -10.352650 8.718804 255 255 0
7.393750 -10.038878 8.640417 255 255 0
7.334531 -9.990074 8.629498 255 255 0
7.624233 -9.989685 8.669041 255 255 0
7.303904 -9.965805 8.623909 255 255 0
7.338992 -9.947207 8.627623 255 255 0
7.391534 -9.797001 8.626086 255 255 0
7.365551 -9.793330 8.622326 255 255 0
7.340405 -9.779652 8.618097 255 255 0
7.327844 -9.704357 8.612016 255 255 0
7.362532 -9.703521 8.616704 255 255 0
7.351590 -9.699292 8.614964 255 255 0
7.312567 -8.683217 8.550709 255 255 0
7.666333 -8.718038 8.601041 255 255 0
7.674013 -8.415940 8.584570 255 255 0
7.855777 -10.386958 8.723703 255 255 0
7.857145 -10.366904 8.722727 255 255 0
7.335012 -9.980569 8.629013 255 255 0
7.273054 -9.696314 8.604067 255 255 0
7.461365 -8.905202 8.583903 255 255 0
7.595071 -8.900854 8.601912 255 255 0
7.209696 -8.834712 8.545445 255 255 0
7.597161 -8.884442 8.601245 255 255 0
7.247085 -8.667041 8.540827 255 255 0
7.263512 -8.641838 8.541609 255 255 0
7.398225 -9.791824 8.626700 255 255 0
7.347263 -9.743653 8.616947 255 255 0
7.372717 -9.755361 8.621102 255 255 0
7.389309 -9.716172 8.621096 255 255 0
7.308151 -9.696492 8.608871 255 255 0
7.321949 -9.701908 8.611068 255 255 0
7.327785 -9.694361 8.611428 255 255 0
6.955834 -8.557765 8.494714 255 255 0
6.947745 -8.533592 8.492208 255 255 0
6.974699 -8.309946 8.482918 255 255 0
6.953944 -8.328669 8.481169 255 255 0
6.987764 -8.204901 8.478610 255 255 0
6.971785 -8.177912 8.474863 255 255 0
7.318706 -9.750955 8.613470 255 255 0
7.376629 -9.183022 8.588444 255 255 0
7.488347 -9.120375 8.600067 255 255 0
6.925923 -8.761405 8.502439 255 255 0
6.933050 -8.731637 8.501686 255 255 0
6.918478 -8.621845 8.493328 255 255 0
7.162590 -8.629939 8.527137 255 255 0
7.195958 -8.630308 8.531714 255 255 0
6.933865 -8.560354 8.491863 255 255 0
7.181655 -8.603538 8.528209 255 255 0
6.918768 -8.534263 8.488289 255 255 0
6.923971 -8.507345 8.487438 255 255 0
6.935840 -8.480068 8.487477 255 255 0
6.920372 -8.452052 8.483740 255 255 0
6.949401 -8.317259 8.479887 255 255 0
6.942035 -8.225310 8.473548 255 255 0
6.935329 -8.188272 8.470485 255 255 0
6.955954 -8.151131 8.471148 255 255 0
6.955925 -8.059492 8.465830 255 255 0
8.087493 -10.351147 8.753271 255 255 0
7.317255 -10.048393 8.630522 255 255 0
7.402352 -10.073721 8.643613 255 255 0
7.288897 -10.021790 8.625107 255 255 0
7.320099 -10.025214 8.629566 255 255 0
7.354751 -10.039036 8.635100 255 255 0
7.325456 -10.012737 8.629574 255 255 0
7.377920 -10.027986 8.637624 255 255 0
7.074492 -9.013983 8.537376 255 255 0
7.103456 -8.882734 8.533721 255 255 0
7.096567 -8.844460 8.530560 255 255 0
7.120132 -8.846964 8.533924 255 255 0
6.942682 -8.704328 8.501418 255 255 0
6.923519 -8.675873 8.497150 255 255 0
6.953218 -8.677466 8.501298 255 255 0
6.933506 -8.647757 8.496883 255 255 0
7.179199 -8.594937 8.527374 255 255 0
7.198589 -8.575601 8.528901 255 255 0
7.623903 -8.495131 8.582319 255 255 0
6.918259 -8.142675 8.465509 255 255 0
6.930638 -8.115819 8.465642 255 255 0
6.940750 -8.085292 8.465253 255 255 0
6.947298 -8.046998 8.463926 255 255 0
6.935758 -8.010656 8.460243 255 255 0
6.945173 -8.036222 8.463011 255 255 0
6.924355 -7.986559 8.457288 255 255 0
6.953577 -7.985889 8.461240 255 255 0
6.952475 -7.986357 8.461117 255 255 0
6.963446 -8.010745 8.464028 255 255 0
6.964347 -8.010571 8.464142 255 255 0
6.915761 -7.950055 8.453997 255 255 0
6.938439 -7.960644 8.457708 255 255 0
6.969264 -7.961184 8.461949 255 255 0
6.932534 -7.931203 8.455194 255 255 0
6.921708 -7.926231 8.453427 255 255 0
6.933022 -7.949718 8.456335 255 255 0
6.920464 -7.910363 8.452337 255 255 0
7.554388 -8.559769 8.576574 255 255 0
9.495418 -8.787413 8.854861 255 255 0
9.489441 -8.672713 8.847393 255 255 0
9.520631 -8.184300 8.823327 255 255 0
9.536137 -8.100167 8.820566 255 255 0
9.530590 -8.122455 8.821100 255 255 0
9.536847 -8.089890 8.820066 255 255 0
9.504959 -8.082722 8.815296 255 255 0
9.538858 -8.025236 8.816592 255 255 0
9.525654 -8.026529 8.814864 255 255 0
9.449964 -8.765021 8.847355 255 255 0
9.521241 -8.321256 8.831353 255 255 0
9.504217 -8.284029 8.826869 255 255 0
9.513365 -8.226493 8.824781 255 255 0
9.491238 -8.225723 8.821715 255 255 0
9.484744 -8.169510 8.817569 255 255 0
9.499611 -8.123027 8.816903 255 255 0
9.525055 -7.985545 8.812405 255 255 0
9.547641 -7.788916 8.804086 255 255 0
9.545087 -7.768038 8.802526 255 255 0
9.508305 -8.008496 8.811449 255 255 0
9.509418 -7.966290 8.809153 255 255 0
9.525192 -7.944802 8.810061 255 255 0
9.537968 -7.873279 8.807657 255 255 0
9.429667 -8.729760 8.842539 255 255 0
9.501618 -7.915677 8.805153 255 255 0
9.530069 -7.898734 8.808055 255 255 0
9.521318 -7.867224 8.805033 255 255 0
9.535254 -7.836081 8.805129 255 255 0
9.536416 -7.819578 8.804332 255 255 0
7.164347 -7.693061 8.473042 255 255 0
7.112059 -8.925676 8.537386 255 255 0
6.987727 -8.509560 8.496274 255 255 0
6.955707 -8.454045 8.488681 255 255 0
7.340541 -8.609909 8.550277 255 255 0
6.924748 -8.361765 8.479102 255 255 0
7.551069 -8.663355 8.582128 255 255 0
7.555655 -8.692093 8.584421 255 255 0
7.442287 -8.562868 8.561444 255 255 0
7.459597 -8.531983 8.562017 255 255 0
7.605497 -8.527086 8.581659 255 255 0
7.521697 -8.447941 8.565624 255 255 0
7.531710 -8.409679 8.564773 255 255 0
7.512116 -8.380565 8.560409 255 255 0
9.188594 -7.606453 8.744470 255 255 0
7.600005 -9.928211 8.662168 255 255 0
7.580393 -9.887408 8.657122 255 255 0
7.606717 -9.846526 8.658346 255 255 0
7.092955 -9.447594 8.565046 255 255 0
7.086333 -9.457311 8.564706 255 255 0
7.168018 -9.452061 8.575556 255 255 0
6.990170 -9.376607 8.546892 255 255 0
7.066860 -9.401634 8.558817 255 255 0
7.102760 -9.402943 8.563796 255 255 0
7.196946 -9.438713 8.578732 255 255 0
7.022163 -9.378128 8.551349 255 255 0
7.114928 -9.368194 8.563441 255 255 0
7.115207 -9.371545 8.563675 255 255 0
7.177526 -9.397912 8.573715 255 255 0
7.093483 -9.351820 8.559564 255 255 0
7.084768 -9.345156 8.557987 255 255 0
7.091717 -9.352823 8.559381 255 255 0
7.083791 -9.354583 8.558400 255 255 0
7.085963 -9.355040 8.558723 255 255 0
7.115969 -9.342112 8.562072 255 255 0
7.118136 -9.340142 8.562253 255 255 0
7.160675 -9.349352 8.568597 255 255 0
7.625030 -9.452974 8.638023 255 255 0
7.650815 -9.466762 8.642344 255 255 0
7.661864 -9.444209 8.642546 255 255 0
7.287823 -9.237543 8.579477 255 255 0
7.298912 -9.216828 8.579790 255 255 0
7.628504 -9.395466 8.635163 255 255 0
7.301552 -9.208151 8.579648 255 255 0
7.330347 -9.204533 8.583370 255 255 0
7.330403 -9.203529 8.583320 255 255 0
7.327347 -9.201166 8.582766 255 255 0
7.048589 -9.047237 8.535769 255 255 0
7.083984 -9.045840 8.540522 255 255 0
7.082471 -9.050925 8.540609 255 255 0
7.085048 -9.048956 8.540848 255 255 0
7.094841 -9.059772 8.542811 255 255 0
7.105407 -9.065712 8.544599 255 255 0
7.348326 -9.189545 8.584956 255 255 0
7.059983 -9.000752 8.534629 255 255 0
7.096879 -9.023968 8.541014 255 255 0
7.106323 -9.018289 8.541974 255 255 0
7.146612 -9.068268 8.550375 255 255 0
7.386151 -9.164934 8.588695 255 255 0
7.054710 -8.951159 8.531033 255 255 0
7.037129 -8.963808 8.529365 255 255 0
7.113928 -8.988206 8.541268 255 255 0
7.122895 -8.993704 8.542811 255 255 0
7.158391 -8.993566 8.547651 255 255 0
7.218075 -9.049451 8.559043 255 255 0
7.420758 -9.155683 8.592885 255 255 0
7.441909 -9.159178 8.595975 255 255 0
7.074121 -8.934639 8.532725 255 255 0
7.119069 -8.953398 8.539951 255 255 0
7.443034 -9.132211 8.594565 255 255 0
7.465254 -9.123256 8.597081 255 255 0
7.060503 -8.905452 8.529172 255 255 0
7.149194 -8.918895 8.542065 255 255 0
7.149010 -8.929307 8.542644 255 255 0
7.151153 -8.920933 8.542451 255 255 0
7.176140 -8.940563 8.547002 255 255 0
7.217787 -8.961608 8.553909 255 255 0
7.138402 -8.863208 8.537361 255 255 0
7.149495 -8.874556 8.539534 255 255 0
7.204670 -8.900933 8.548599 255 255 0
7.295509 -8.975721 8.565342 255 255 0
7.517069 -9.085155 8.601947 255 255 0
7.081467 -8.839823 8.528230 255 255 0
7.142587 -8.845424 8.536901 255 255 0
7.130804 -8.861498 8.536223 255 255 0
7.155029 -8.840632 8.538322 255 255 0
7.179831 -8.865252 8.543139 255 255 0
7.258996 -8.907963 8.556427 255 255 0
7.274107 -8.939495 8.560319 255 255 0
6.922445 -8.715472 8.499301 255 255 0
7.104209 -8.819135 8.530136 255 255 0
7.129695 -8.801542 8.532596 255 255 0
7.220622 -8.866171 8.548762 255 255 0
7.206809 -8.820927 8.544251 255 255 0
6.922912 -8.655385 8.495879 255 255 0
6.937800 -8.679022 8.499283 255 255 0
7.164629 -8.800291 8.537293 255 255 0
7.201725 -8.803501 8.542546 255 255 0
7.225737 -8.799545 8.545596 255 255 0
7.293414 -8.835121 8.556902 255 255 0
6.922176 -8.645794 8.495223 255 255 0
6.952922 -8.645767 8.499420 255 255 0
7.120475 -8.734316 8.527437 255 255 0
7.149716 -8.772492 8.533646 255 255 0
7.221217 -8.766652 8.543072 255 255 0
7.270139 -8.821142 8.552913 255 255 0
7.382904 -8.878511 8.571640 255 255 0
6.919800 -8.576261 8.490866 255 255 0
7.202210 -8.753005 8.539684 255 255 0
6.941423 -8.552032 8.492414 255 255 0
7.115654 -8.661245 8.522541 255 255 0
7.272420 -8.718531 8.547273 255 255 0
7.327273 -8.748033 8.556477 255 255 0
6.971553 -8.539518 8.495803 255 255 0
6.927974 -8.461106 8.485303 255 255 0
6.967500 -8.515757 8.493871 255 255 0
6.946311 -8.499402 8.490028 255 255 0
7.143258 -8.595856 8.522519 255 255 0
7.141531 -8.599374 8.522488 255 255 0
6.917344 -8.422929 8.481638 255 255 0
6.940307 -8.472146 8.487628 255 255 0
6.968734 -8.463020 8.490980 255 255 0
6.918127 -8.390072 8.479839 255 255 0
6.954072 -8.435824 8.487401 255 255 0
6.943378 -8.400310 8.483881 255 255 0
6.966715 -8.422231 8.488340 255 255 0
7.353038 -8.629787 8.553137 255 255 0
6.986039 -8.383601 8.488738 255 255 0
6.979700 -8.371438 8.487167 255 255 0
7.003840 -8.416370 8.493070 255 255 0
7.173907 -8.490889 8.520617 255 255 0
7.331187 -8.594571 8.548110 255 255 0
6.928382 -8.334354 8.478008 255 255 0
6.940011 -8.328220 8.479241 255 255 0
7.022429 -8.374777 8.493196 255 255 0
7.231190 -8.492246 8.528519 255 255 0
7.204308 -8.488232 8.524615 255 255 0
7.295197 -8.505154 8.538010 255 255 0
7.318574 -8.546473 8.543598 255 255 0
7.414644 -8.593907 8.559469 255 255 0
6.932808 -8.305662 8.476949 255 255 0
7.029263 -8.364904 8.493557 255 255 0
7.219569 -8.450448 8.524508 255 255 0
7.272552 -8.473505 8.533082 255 255 0
7.319668 -8.478509 8.539806 255 255 0
7.343598 -8.520584 8.545514 255 255 0
7.390328 -8.514192 8.551525 255 255 0
7.413284 -8.535237 8.555882 255 255 0
7.429506 -8.565146 8.559831 255 255 0
7.453836 -8.570807 8.563482 255 255 0
6.957368 -8.283235 8.479002 255 255 0
7.038144 -8.316557 8.491966 255 255 0
7.247332 -8.437619 8.527556 255 255 0
7.295004 -8.443527 8.534410 255 255 0
7.357468 -8.484927 8.545341 255 255 0
7.420986 -8.498813 8.554820 255 255 0
7.454581 -8.542916 8.561966 255 255 0
6.927043 -8.239968 8.472351 255 255 0
6.960396 -8.241248 8.476980 255 255 0
6.953773 -8.221845 8.474950 255 255 0
7.254745 -8.377258 8.525067 255 255 0
7.269810 -8.406116 8.528799 255 255 0
7.318739 -8.415987 8.536053 255 255 0
7.337828 -8.449875 8.540626 255 255 0
7.368292 -8.443467 8.544415 255 255 0
6.923160 -8.177586 8.468204 255 255 0
6.983736 -8.209042 8.478300 255 255 0
7.070861 -8.263436 8.493353 255 255 0
7.238800 -8.347287 8.521152 255 255 0
7.283754 -8.350817 8.527495 255 255 0
7.304192 -8.369260 8.531357 255 255 0
7.317059 -8.390927 8.534370 255 255 0
7.358537 -8.424546 8.541985 255 255 0
7.388853 -8.435951 8.546786 255 255 0
7.415300 -8.430694 8.550094 255 255 0
6.935328 -8.141556 8.467775 255 255 0
6.968542 -8.180815 8.474588 255 255 0
7.032034 -8.225669 8.485860 255 255 0
7.051266 -8.230117 8.488745 255 255 0
7.086566 -8.228082 8.493447 255 255 0
7.243490 -8.310997 8.519688 255 255 0
7.426530 -8.391000 8.549325 255 255 0
7.598698 -8.480864 8.578049 255 255 0
6.979363 -8.138980 8.473639 255 255 0
7.015759 -8.175925 8.480753 255 255 0
7.315219 -8.326615 8.530390 255 255 0
6.927765 -8.075583 8.462916 255 255 0
6.927649 -8.053193 8.461602 255 255 0
6.999533 -8.143928 8.476682 255 255 0
7.056157 -8.165237 8.485651 255 255 0
7.089032 -8.157883 8.489714 255 255 0
7.260213 -8.237720 8.517722 255 255 0
7.432452 -8.308540 8.545352 255 255 0
7.596533 -8.414479 8.573904 255 255 0
6.954725 -8.037952 8.464416 255 255 0
7.009088 -8.079515 8.474251 255 255 0
7.039591 -8.122858 8.480929 255 255 0
7.410576 -8.275049 8.540421 255 255 0
7.545520 -8.348117 8.563088 255 255 0
7.620791 -8.394474 8.576056 255 255 0
7.113180 -8.111157 8.490301 255 255 0
7.117978 -8.108470 8.490801 255 255 0
7.284933 -8.173967 8.517401 255 255 0
7.393566 -8.246130 8.536422 255 255 0
7.436518 -8.260144 8.543100 255 255 0
7.439545 -8.255702 8.543255 255 255 0
7.420024 -8.237264 8.539520 255 255 0
7.445713 -8.274268 8.545176 255 255 0
7.503807 -8.299809 8.554590 255 255 0
6.915008 -7.946667 8.453697 255 255 0
7.087936 -8.057206 8.483725 255 255 0
7.277030 -8.151203 8.515000 255 255 0
7.132607 -8.061362 8.490067 255 255 0
6.991704 -7.784875 8.454789 255 255 0
7.013669 -7.765365 8.456656 255 255 0
7.029127 -7.783247 8.459805 255 255 0
7.202099 -7.836298 8.486505 255 255 0
7.202197 -7.836391 8.486524 255 255 0
7.202099 -7.836298 8.486505 255 255 0
7.079347 -7.744738 8.464430 255 255 0
9.434231 -8.693202 8.841042 255 255 0
7.790699 -10.284511 8.708875 255 255 0
7.752499 -10.080558 8.691829 255 255 0
7.341466 -9.789435 8.618810 255 255 0
7.609352 -9.951956 8.664821 255 255 0
7.761722 -10.051043 8.691377 255 255 0
7.318006 -9.754878 8.613602 255 255 0
7.686452 -9.929444 8.674045 255 255 0
7.560559 -9.798313 8.649246 255 255 0
7.628011 -9.859406 8.662001 255 255 0
7.616856 -9.838853 8.659286 255 255 0
7.592885 -9.843693 8.656293 255 255 0
6.978263 -9.410704 8.547243 255 255 0
7.062925 -9.451134 8.561151 255 255 0
7.689539 -9.396863 8.643579 255 255 0
7.088730 -8.903195 8.532897 255 255 0
7.283477 -9.019851 8.566258 255 255 0
6.939266 -8.609600 8.495458 255 255 0
7.247651 -8.543535 8.533742 255 255 0
7.494734 -8.663894 8.574466 255 255 0
7.448853 -8.598897 8.564430 255 255 0
7.486495 -8.591047 8.569117 255 255 0
7.498869 -8.621242 8.572557 255 255 0
7.483636 -8.558605 8.566844 255 255 0
7.494239 -8.580114 8.569540 255 255 0
7.013268 -8.249887 8.484702 255 255 0
7.060157 -8.306219 8.494373 255 255 0
7.481288 -8.526887 8.564684 255 255 0
7.517651 -8.561503 8.571658 255 255 0
7.309875 -8.323619 8.529486 255 255 0
7.373510 -8.346013 8.539475 255 255 0
7.403431 -8.387870 8.545989 255 255 0
7.293088 -8.292667 8.525398 255 255 0
7.432388 -8.371557 8.548997 255 255 0
7.611176 -8.445803 8.577721 255 255 0
7.361696 -8.288898 8.534550 255 255 0
6.917449 -7.958993 8.454746 255 255 0
8.555392 -8.627306 8.717197 255 255 0
9.404572 -8.695986 8.837153 255 255 0
9.434231 -8.693202 8.841042 255 255 0
7.780091 -10.047661 8.693688 255 255 0
7.815081 -10.286877 8.712341 255 255 0
7.818460 -10.264734 8.711517 255 255 0
7.837495 -10.262105 8.713964 255 255 0
7.286265 -9.744512 8.608666 255 255 0
7.311599 -9.729707 8.611267 255 255 0
7.288834 -9.672475 8.604839 255 255 0
7.599170 -9.896490 8.660213 255 255 0
7.566618 -9.840314 8.652510 255 255 0
7.565869 -9.844947 8.652676 255 255 0
7.738986 -9.952963 8.682583 255 255 0
6.964067 -8.305375 8.481201 255 255 0
7.039000 -8.357596 8.494463 255 255 0
6.981274 -8.275669 8.481828 255 255 0
7.454238 -8.618026 8.566276 255 255 0
7.556004 -8.672886 8.583356 255 255 0
9.434231 -8.693202 8.841042 255 255 0
9.458363 -8.658084 8.842300 255 255 0
7.362916 -8.307863 8.535816 255 255 0
7.397357 -8.288407 8.539392 255 255 0
6.994063 -7.769014 8.454191 255 255 0
9.422826 -8.638435 8.836308 255 255 0
6.989605 -8.388756 10.978539 0 0 255
6.988894 -8.388685 10.978034 0 0 255
7.015029 -8.372972 10.966624 0 0 255
7.024420 -8.357240 10.946000 0 0 255
7.013805 -8.354975 10.936467 0 0 255
7.003268 -8.157783 10.607602 0 0 255
7.004783 -8.146428 10.589828 0 0 255
7.010280 -8.137599 10.578380 0 0 255
7.014339 -8.128502 10.565701 0 0 255
6.784032 -8.612009 11.231552 0 0 255
6.771286 -8.614425 11.228518 0 0 255
6.781474 -8.602728 11.214943 0 0 255
6.781570 -8.590231 11.194523 0 0 255
6.805672 -8.560586 11.159171 0 0 255
6.817423 -8.558945 11.162929 0 0 255
6.829381 -8.556966 11.166245 0 0 255
6.838634 -8.492926 11.066397 0 0 255
6.961726 -8.431656 11.033535 0 0 255
7.007696 -8.331958 10.895403 0 0 255
7.011989 -8.326966 10.889581 0 0 255
7.032703 -8.327648 10.902061 0 0 255
7.665401 -9.000014 12.350757 0 0 255
7.657063 -8.992537 12.333929 0 0 255
7.739805 -8.940835 12.294609 0 0 255
7.737444 -8.935682 12.284873 0 0 255
7.744757 -8.918275 12.260364 0 0 255
7.460360 -8.612092 11.602695 0 0 255
7.500041 -8.594095 11.594977 0 0 255
6.783662 -8.628428 11.258251 0 0 255
6.791968 -8.618991 11.247345 0 0 255
6.795098 -8.600229 11.218323 0 0 255
7.616786 -8.532361 11.557876 0 0 255
6.806457 -8.598112 11.221086 0 0 255
6.793858 -8.587296 11.196453 0 0 255
6.807558 -8.585077 11.200333 0 0 255
6.817107 -8.571603 11.183494 0 0 255
6.793514 -8.575652 11.177186 0 0 255
6.805268 -8.573619 11.180304 0 0 255
6.854489 -8.557857 11.181479 0 0 255
6.841371 -8.554888 11.169418 0 0 255
6.848844 -8.541386 11.151396 0 0 255
6.839146 -8.528461 11.124900 0 0 255
6.816740 -8.534304 11.122180 0 0 255
6.839045 -8.536792 11.138494 0 0 255
6.805809 -8.529352 11.108072 0 0 255
6.830796 -8.509841 11.089812 0 0 255
6.876169 -8.546003 11.173949 0 0 255
6.864899 -8.530083 11.141684 0 0 255
6.855634 -8.525573 11.129210 0 0 255
6.839470 -8.520265 11.111647 0 0 255
6.857662 -8.517239 11.116670 0 0 255
6.825234 -8.508122 11.083945 0 0 255
6.823948 -8.518373 11.100034 0 0 255
6.878034 -8.499020 11.097995 0 0 255
6.838196 -8.513423 11.099741 0 0 255
6.858735 -8.508636 11.103163 0 0 255
6.865639 -8.479783 11.059678 0 0 255
6.851165 -8.473804 11.041941 0 0 255
6.908595 -8.500484 11.117157 0 0 255
6.864771 -8.494905 11.083976 0 0 255
6.841824 -8.499122 11.078299 0 0 255
6.845728 -8.489977 11.065459 0 0 255
6.880129 -8.474628 11.059179 0 0 255
6.855011 -8.475945 11.047557 0 0 255
6.879430 -8.465869 11.044445 0 0 255
6.896940 -8.432112 10.998741 0 0 255
6.867845 -8.450642 11.013142 0 0 255
6.835404 -8.426480 10.955759 0 0 255
6.934725 -8.443306 11.037810 0 0 255
6.940632 -8.438644 11.033414 0 0 255
6.916350 -8.437592 11.018367 0 0 255
6.890723 -8.441050 11.009975 0 0 255
6.916350 -8.437592 11.018367 0 0 255
6.920962 -8.418998 10.990434 0 0 255
6.972735 -8.422680 11.024868 0 0 255
6.942546 -8.423890 11.010290 0 0 255
6.961761 -8.404850 10.989634 0 0 255
6.945032 -8.400755 10.973747 0 0 255
6.968417 -8.410877 11.003160 0 0 255
6.946925 -8.414956 10.998054 0 0 255
6.970370 -8.416323 11.013155 0 0 255
6.981802 -8.398170 10.989685 0 0 255
6.976124 -8.392503 10.977283 0 0 255
7.056936 -8.313277 10.891809 0 0 255
6.946419 -8.213284 10.667352 0 0 255
6.963046 -8.197514 10.650634 0 0 255
6.949587 -8.195315 10.639648 0 0 255
6.964592 -8.202252 10.659245 0 0 255
6.987658 -8.183840 10.641730 0 0 255
6.984366 -8.177892 10.630179 0 0 255
7.000260 -8.167199 10.621380 0 0 255
6.980906 -8.170926 10.616871 0 0 255
6.998623 -8.161279 10.610782 0 0 255
6.981586 -8.155641 10.592200 0 0 255
6.995027 -8.145819 10.583479 0 0 255
7.008455 -8.120468 10.549311 0 0 255
7.024298 -8.103868 10.530803 0 0 255
7.053504 -8.082538 10.511877 0 0 255
7.678383 -8.994181 12.348320 0 0 255
7.674631 -8.984644 12.330634 0 0 255
8.118967 -8.872741 12.391036 0 0 255
6.903973 -8.709587 11.457223 0 0 255
6.886436 -8.507179 11.115972 0 0 255
6.956129 -8.388167 10.959212 0 0 255
6.974310 -8.421043 11.023049 0 0 255
7.009646 -8.323511 10.882634 0 0 255
7.265145 -7.983362 10.465482 0 0 255
6.882621 -8.732433 11.482942 0 0 255
6.916922 -8.702254 11.452311 0 0 255
9.054994 -7.915872 11.336747 0 0 255
8.996890 -7.918199 11.308687 0 0 255
7.458559 -8.965628 12.180949 0 0 255
6.920805 -8.712784 11.471691 0 0 255
6.848257 -8.723068 11.448747 0 0 255
6.921773 -8.710338 11.468217 0 0 255
6.896017 -8.702967 11.442010 0 0 255
6.908320 -8.694932 11.435596 0 0 255
6.874190 -8.501374 11.099744 0 0 255
6.890282 -8.496422 11.100456 0 0 255
6.991063 -8.340495 10.900267 0 0 255
8.637614 -8.093447 11.398732 0 0 255
8.982748 -7.954954 11.361150 0 0 255
8.544323 -8.053378 11.281905 0 0 255
7.629400 -8.977502 12.294124 0 0 255
7.592143 -8.972378 12.265289 0 0 255
7.547954 -8.981218 12.255533 0 0 255
7.598692 -8.951411 12.234529 0 0 255
7.490347 -8.962721 12.193626 0 0 255
7.653059 -8.937585 12.241698 0 0 255
7.576459 -8.945416 12.212512 0 0 255
7.558294 -8.942831 12.198310 0 0 255
7.438620 -8.936506 12.122298 0 0 255
7.580698 -8.934032 12.196184 0 0 255
7.465540 -8.918683 12.107866 0 0 255
8.153405 -8.897787 12.450964 0 0 255
8.101597 -8.904860 12.434134 0 0 255
8.100316 -8.900931 12.426991 0 0 255
8.103157 -8.891132 12.412498 0 0 255
8.086931 -8.889418 12.400787 0 0 255
8.083090 -8.875236 12.375443 0 0 255
8.100366 -8.886212 12.402905 0 0 255
8.099571 -8.877542 12.388263 0 0 255
8.072517 -8.865517 12.353720 0 0 255
8.092031 -8.850830 12.340361 0 0 255
8.058302 -8.856936 12.331863 0 0 255
8.037186 -8.858418 12.322708 0 0 255
8.104213 -8.838881 12.327466 0 0 255
6.949218 -8.695575 11.459082 0 0 255
6.956006 -8.683928 11.443726 0 0 255
6.914410 -8.681170 11.416389 0 0 255
6.931132 -8.668028 11.404031 0 0 255
6.944719 -8.667710 11.410962 0 0 255
6.963050 -8.653760 11.398161 0 0 255
8.846963 -8.028177 11.406632 0 0 255
9.027038 -7.974206 11.416989 0 0 255
8.966296 -7.976425 11.387301 0 0 255
9.068378 -7.951765 11.402899 0 0 255
8.914656 -7.982969 11.369696 0 0 255
8.956955 -7.959334 11.354176 0 0 255
9.025748 -7.934715 11.351576 0 0 255
8.937039 -7.958791 11.342361 0 0 255
9.040194 -7.925724 11.344770 0 0 255
8.826406 -7.828765 11.068635 0 0 255
8.848598 -7.825668 11.075733 0 0 255
8.921491 -7.752663 10.996107 0 0 255
7.511276 -8.979049 12.231858 0 0 255
7.795573 -9.018610 12.452630 0 0 255
7.616234 -8.958215 12.255300 0 0 255
7.504708 -8.976859 12.224666 0 0 255
7.802394 -8.994745 12.417273 0 0 255
7.637488 -8.950195 12.253819 0 0 255
7.620004 -8.945580 12.236669 0 0 255
7.599875 -8.940514 12.217323 0 0 255
7.582131 -8.941246 12.208790 0 0 255
7.499718 -8.952419 12.181888 0 0 255
7.483140 -8.967411 12.197357 0 0 255
7.482846 -8.951752 12.171539 0 0 255
7.440907 -8.956113 12.155679 0 0 255
7.416026 -8.949931 12.131902 0 0 255
7.322808 -8.924241 12.038674 0 0 255
7.813647 -8.977868 12.395793 0 0 255
7.852319 -8.950763 12.372596 0 0 255
7.558328 -8.930436 12.178021 0 0 255
7.526939 -8.909139 12.125907 0 0 255
7.503264 -8.917114 12.125989 0 0 255
7.457909 -8.943525 12.144382 0 0 255
7.478754 -8.915724 12.110265 0 0 255
7.847963 -8.943327 12.358023 0 0 255
7.826187 -8.956882 12.368287 0 0 255
7.560492 -8.915143 12.154151 0 0 255
7.560681 -8.902876 12.134156 0 0 255
8.175459 -8.897450 12.462510 0 0 255
8.129196 -8.889219 12.423647 0 0 255
7.859579 -8.939847 12.358695 0 0 255
7.841690 -8.937283 12.344680 0 0 255
7.600711 -8.901869 12.154466 0 0 255
8.578135 -8.126573 11.420377 0 0 255
8.553946 -8.131329 11.414901 0 0 255
8.495032 -8.128678 11.378242 0 0 255
8.577768 -8.106101 11.386636 0 0 255
8.611200 -8.101050 11.396700 0 0 255
8.817417 -8.041536 11.412313 0 0 255
8.584444 -8.082839 11.352185 0 0 255
8.560839 -8.086030 11.344464 0 0 255
9.009272 -7.989775 11.432749 0 0 255
8.832915 -8.024114 11.392270 0 0 255
8.805797 -8.033598 11.392933 0 0 255
8.816950 -8.027313 11.388752 0 0 255
8.676579 -8.059196 11.363988 0 0 255
8.608965 -8.081649 11.363687 0 0 255
8.558747 -8.074208 11.323949 0 0 255
8.860854 -8.007028 11.379601 0 0 255
8.835961 -8.006828 11.365619 0 0 255
9.014382 -7.963458 11.392434 0 0 255
8.943173 -7.968958 11.362385 0 0 255
9.061013 -7.942477 11.383640 0 0 255
9.006434 -7.956220 11.376215 0 0 255
8.930396 -7.961759 11.343581 0 0 255
9.102693 -7.927354 11.381726 0 0 255
8.997322 -7.942692 11.349054 0 0 255
8.975655 -7.947213 11.344576 0 0 255
8.955921 -7.947471 11.334172 0 0 255
8.948611 -7.952538 11.338465 0 0 255
9.120973 -7.915114 11.371698 0 0 255
9.095292 -7.921165 11.367526 0 0 255
9.014112 -7.931672 11.340209 0 0 255
9.016367 -7.929000 11.337068 0 0 255
9.013468 -7.929669 11.336574 0 0 255
9.000659 -7.927357 11.325759 0 0 255
9.154067 -7.907965 11.378140 0 0 255
9.143920 -7.903586 11.365399 0 0 255
9.113564 -7.909013 11.357638 0 0 255
9.086384 -7.910595 11.345320 0 0 255
9.028717 -7.920422 11.329788 0 0 255
9.028846 -7.915924 11.322488 0 0 255
9.161658 -7.888741 11.350805 0 0 255
9.123981 -7.895505 11.341223 0 0 255
9.107832 -7.896605 11.334164 0 0 255
9.079470 -7.904402 11.331383 0 0 255
8.810469 -7.826147 11.055600 0 0 255
9.138151 -7.894106 11.346704 0 0 255
8.825701 -7.796682 11.015681 0 0 255
8.804063 -7.789082 10.991362 0 0 255
8.683825 -7.757598 10.873818 0 0 255
8.777249 -7.720248 10.863873 0 0 255
8.773088 -7.723853 10.867496 0 0 255
8.688775 -7.699112 10.780709 0 0 255
8.723594 -7.682644 10.772827 0 0 255
8.784514 -7.719552 10.866717 0 0 255
8.749655 -7.697469 10.811414 0 0 255
8.698218 -7.667136 10.733499 0 0 255
